NCOLS 166 
NROWS 110 
XLLCORNER 695400 
YLLCORNER 4730600 
CELLSIZE 200 
NODATA_value 0 
1694.000000000000000 1642 1589 1522 1463 1446 1408 1385 1335 1277 1145 1051 946 819 705 651 707 780 845 957 1017 1122 1202 1373 1499 1627 1677 1640 1582 1487 1454 1485 1532 1608 1623 1549 1533 1609 1644 1689 1724 1830 1914 2034 2140 2211 2263 2311 2306 2332 2236 2130 1993 1979 2005 2053 2213 2121 2038 2015 1952 1911 1951 1865 1729 1505 1427 1367 1317 1242 1124 1022 989 1056 1150 1162 1264 1402 1521 1623 1731 1927 1990 1884 1830 1845 1875 1959 2004 2026 2040 1990 1962 1944 1859 1878 1869 1806 1746 1618 1604 1564 1497 1451 1428 1493 1575 1684 1776 1892 2068 2142 2286 2392 2416 2428 2534 2565 2643 2547 2475 2458 2430 2477 2589 2561 2483 2400 2261 2159 2116 2088 2025 1932 1715 1576 1514 1411 1424 1505 1680 1847 2014 2106 2266 2329 2291 2199 2138 2061 1912 1773 1610 1441 1323 1279 1356 1500 1681 1855 1896 1797 1726 1641 1584 1572
1795 1708 1638 1613 1561 1530 1507 1541 1376 1275 1179 1071 955 864 806 749 644 751 848 945 1043 1189 1267 1360 1446 1577 1619 1628 1486 1428 1382 1462 1564 1586 1602 1496 1520 1597 1632 1699 1773 1870 1937 2013 2063 2135 2188 2259 2352 2427 2370 2310 2159 2159 2257 2316 2257 2145 2117 2022 1978 2060 1980 1799 1675 1526 1468 1453 1394 1318 1177 1084 1005 1073 1173 1206 1306 1422 1497 1582 1668 1802 1890 1771 1751 1742 1753 1832 1881 1933 2043 2076 2032 1983 1910 1921 1984 1905 1829 1765 1766 1758 1628 1531 1497 1458 1512 1598 1714 1837 1974 2030 2161 2246 2340 2436 2524 2600 2685 2574 2516 2528 2547 2534 2460 2401 2295 2236 2181 2139 2053 1962 1906 1791 1668 1518 1429 1400 1466 1590 1728 1898 2066 2246 2367 2450 2331 2254 2111 1973 1820 1705 1578 1423 1309 1319 1405 1563 1715 1926 2009 1906 1819 1785 1663 1585
1843 1779 1772 1722 1692 1646 1604 1599 1439 1305 1187 1071 1012 923 890 803 664 664 798 942 1071 1232 1365 1432 1511 1459 1478 1553 1471 1376 1346 1403 1413 1441 1496 1438 1495 1640 1709 1769 1794 1879 1920 1949 1992 2059 2107 2236 2348 2342 2382 2362 2267 2236 2294 2342 2279 2198 2123 2090 2056 1988 1941 1816 1738 1673 1603 1613 1488 1364 1269 1138 994 1044 1195 1217 1337 1443 1486 1548 1627 1712 1734 1700 1653 1654 1708 1771 1787 1878 2018 2150 2147 2090 2018 1978 2075 2034 1914 1863 1872 1863 1788 1726 1656 1535 1483 1546 1668 1785 1857 1952 2055 2189 2326 2407 2472 2545 2648 2618 2635 2634 2587 2447 2312 2283 2233 2236 2186 2160 2046 1903 1865 1758 1680 1534 1423 1410 1503 1661 1778 1942 2111 2279 2416 2339 2311 2262 2058 1935 1867 1740 1590 1424 1297 1373 1467 1618 1796 1992 2106 1955 1878 1878 1794 1681
1854 1858 1830 1842 1879 1810 1753 1713 1551 1434 1225 1061 1012 1071 1011 892 769 662 746 933 1083 1182 1316 1388 1372 1376 1378 1428 1391 1288 1248 1234 1287 1294 1339 1341 1428 1543 1625 1703 1791 1766 1801 1867 1948 2017 2087 2237 2269 2265 2242 2272 2191 2135 2178 2212 2265 2224 2137 2076 2007 1916 1931 1948 1936 1846 1797 1748 1573 1456 1316 1177 1016 996 1146 1202 1316 1329 1353 1407 1471 1558 1598 1599 1568 1542 1595 1663 1728 1810 1910 2003 2096 2204 2090 2054 2139 2019 1970 1956 2004 1973 1906 1849 1788 1671 1583 1530 1627 1706 1827 1955 2024 2154 2297 2384 2452 2559 2658 2599 2582 2500 2467 2362 2291 2269 2242 2216 2234 2184 2098 1987 1867 1717 1603 1522 1447 1428 1535 1671 1817 2013 2133 2272 2427 2403 2342 2239 2120 1993 1852 1685 1545 1439 1341 1407 1554 1685 1786 1997 2126 2002 1940 1997 1887 1784
1804 1773 1713 1656 1642 1668 1663 1572 1442 1324 1163 1058 1121 1169 1131 923 802 681 747 897 1038 1186 1259 1286 1305 1316 1306 1319 1305 1217 1169 1207 1216 1240 1253 1310 1413 1486 1574 1665 1691 1678 1755 1860 1938 2082 2122 2253 2177 2185 2154 2148 2128 2077 2111 2133 2161 2232 2233 2170 2048 1954 1975 1992 1955 1934 1898 1829 1679 1539 1353 1229 1095 998 1069 1115 1167 1187 1223 1295 1322 1399 1491 1512 1504 1453 1518 1565 1636 1715 1829 1928 2033 2095 2183 2115 2137 1995 2030 2002 2110 2045 1964 1893 1875 1810 1632 1548 1594 1653 1776 1923 2086 2158 2279 2384 2497 2625 2676 2594 2543 2497 2404 2289 2279 2278 2313 2296 2209 2201 2114 1970 1821 1730 1640 1578 1508 1461 1542 1673 1794 1982 2137 2330 2486 2437 2285 2186 2115 1875 1734 1638 1561 1540 1454 1465 1578 1780 1910 2020 2170 2066 2008 2092 1937 1857
1724 1680 1662 1603 1530 1527 1509 1517 1435 1317 1132 1157 1249 1378 1275 1111 869 733 768 952 1116 1223 1205 1159 1179 1196 1208 1201 1163 1169 1287 1326 1352 1356 1347 1301 1382 1440 1531 1609 1602 1713 1808 1903 2004 2114 2225 2267 2210 2176 2104 2071 2015 2013 2041 2035 2057 2075 2132 2167 2078 2003 2046 2141 2067 1997 1983 1938 1658 1582 1419 1300 1157 1038 1080 1111 1139 1128 1135 1125 1174 1260 1316 1352 1372 1378 1436 1531 1652 1761 1853 1934 2062 2180 2286 2219 2149 2036 2038 2099 2181 2041 1972 1965 1947 1872 1741 1614 1554 1584 1733 1880 2036 2117 2193 2316 2403 2486 2536 2579 2520 2406 2354 2269 2272 2300 2374 2258 2216 2225 2114 1978 1931 1845 1774 1638 1549 1495 1533 1646 1768 1964 2087 2266 2408 2477 2271 2113 1976 1857 1698 1647 1680 1736 1518 1529 1660 1833 2015 2122 2215 2109 2095 2159 2055 1978
1673 1601 1560 1591 1514 1453 1368 1378 1361 1297 1115 1258 1417 1436 1275 1175 995 826 750 962 901 947 981 1000 1069 1136 1129 1125 1210 1304 1420 1423 1461 1456 1493 1431 1343 1385 1453 1539 1648 1747 1841 1925 1983 2083 2205 2278 2272 2223 2084 2052 2053 1973 1985 1981 1979 1960 1963 2007 2101 2091 2114 2076 1994 1864 1905 1883 1719 1566 1442 1272 1149 1079 1149 1210 1260 1309 1325 1254 1223 1195 1181 1228 1279 1321 1402 1525 1665 1767 1907 2006 2075 2189 2321 2215 2133 2074 2063 2170 2093 2004 1975 2011 1983 1899 1804 1684 1601 1584 1684 1825 1981 2105 2217 2231 2296 2458 2552 2564 2416 2319 2274 2261 2253 2343 2373 2243 2265 2249 2162 2072 2008 1934 1831 1696 1613 1527 1529 1633 1742 1917 2032 2226 2387 2378 2243 2113 1969 1850 1807 1784 1833 1756 1581 1524 1668 1825 1989 2182 2281 2146 2193 2289 2186 2011
1695 1656 1574 1506 1510 1427 1353 1286 1240 1147 1241 1431 1476 1367 1260 1150 1030 785 780 881 945 1023 1083 1131 1117 1253 1268 1306 1413 1409 1507 1533 1531 1554 1580 1572 1502 1443 1417 1505 1632 1792 1854 1914 1979 2051 2138 2257 2352 2210 2132 2042 2039 2044 1971 1905 1855 1822 1859 1945 2029 2070 2027 1999 1950 1802 1750 1750 1713 1534 1373 1242 1110 1140 1285 1370 1416 1432 1461 1467 1398 1415 1340 1220 1224 1276 1375 1474 1595 1688 1827 1992 2139 2199 2304 2303 2261 2193 2160 2130 2065 1978 1981 2055 2083 1960 1848 1744 1651 1608 1652 1761 1921 2067 2208 2279 2303 2420 2544 2484 2431 2303 2266 2258 2278 2365 2325 2274 2327 2295 2218 2104 1985 1990 1947 1810 1683 1568 1529 1619 1718 1834 1965 2139 2314 2375 2307 2141 1972 1953 1940 1899 1923 1815 1635 1542 1669 1829 1985 2168 2294 2259 2336 2355 2148 2011
1778 1696 1602 1497 1426 1392 1305 1219 1137 1223 1406 1525 1447 1388 1303 1215 1033 839 775 954 1096 1194 1233 1276 1264 1398 1455 1487 1524 1515 1599 1621 1588 1617 1650 1622 1578 1556 1478 1462 1557 1685 1802 1904 1969 2043 2129 2260 2320 2240 2139 2106 2073 2027 1987 1918 1793 1769 1769 1838 1900 1976 1947 1871 1840 1714 1575 1562 1570 1427 1328 1196 1123 1204 1354 1489 1568 1577 1653 1616 1589 1523 1404 1267 1207 1244 1338 1467 1593 1716 1920 2034 2021 2098 2165 2295 2309 2236 2238 2235 2125 2006 2022 2127 2147 2025 1902 1823 1720 1636 1646 1722 1839 1968 2070 2121 2232 2298 2351 2393 2485 2341 2302 2286 2325 2399 2312 2277 2364 2317 2213 2076 2005 2077 2008 1919 1754 1623 1510 1596 1681 1825 2003 2153 2351 2420 2244 2105 2012 2059 2055 2044 2025 1890 1635 1551 1644 1862 2063 2231 2391 2448 2470 2307 2108 1993
1787 1663 1560 1496 1390 1305 1230 1153 1212 1325 1451 1506 1406 1315 1220 1112 968 835 707 825 978 1032 1120 1240 1324 1424 1553 1615 1616 1624 1669 1674 1654 1716 1725 1667 1613 1617 1586 1506 1515 1654 1832 1940 1993 2070 2162 2310 2370 2298 2163 2124 2113 2061 2004 1908 1775 1705 1708 1755 1799 1882 1893 1790 1713 1615 1433 1404 1333 1258 1210 1158 1178 1318 1452 1558 1705 1709 1768 1688 1574 1461 1370 1292 1223 1221 1289 1406 1538 1668 1826 1869 1928 2001 2101 2271 2376 2339 2354 2264 2185 2121 2116 2197 2224 2072 1970 1898 1783 1692 1665 1692 1822 1895 1993 2062 2175 2200 2199 2304 2426 2389 2320 2324 2351 2388 2321 2338 2384 2365 2237 2175 2097 2155 2115 1990 1796 1693 1540 1562 1662 1804 1980 2150 2339 2352 2186 2153 2124 2137 2127 2116 1975 1836 1645 1560 1645 1908 2071 2268 2418 2549 2431 2282 2155 2052
1690 1632 1547 1486 1389 1271 1175 1188 1273 1390 1490 1412 1327 1256 1149 1061 928 820 734 709 791 931 1034 1171 1289 1451 1580 1627 1678 1682 1748 1779 1771 1816 1753 1731 1706 1707 1637 1602 1520 1622 1761 1932 1998 2110 2200 2296 2371 2321 2241 2182 2153 2195 2099 1988 1858 1731 1673 1667 1691 1754 1808 1702 1593 1523 1334 1285 1205 1216 1200 1220 1294 1436 1621 1706 1833 1886 1814 1653 1531 1475 1481 1411 1271 1185 1205 1342 1484 1576 1680 1749 1836 1897 2038 2151 2206 2262 2387 2407 2348 2254 2228 2301 2174 2139 2078 1966 1862 1762 1678 1703 1814 1926 2039 2112 2230 2257 2222 2220 2310 2440 2433 2437 2430 2437 2377 2400 2465 2460 2288 2263 2218 2242 2220 2089 1856 1750 1585 1568 1652 1781 1932 2081 2220 2326 2291 2260 2268 2226 2220 2162 1947 1810 1634 1611 1706 1861 2067 2232 2366 2512 2469 2304 2200 2210
1587 1528 1524 1490 1374 1248 1191 1228 1326 1446 1448 1362 1258 1194 1108 1013 915 806 738 711 761 862 1002 1126 1265 1378 1468 1560 1660 1710 1799 1855 1898 1881 1810 1802 1793 1733 1693 1658 1573 1648 1768 1910 2014 2108 2202 2274 2348 2349 2328 2309 2259 2165 2099 2042 1909 1789 1729 1611 1576 1668 1692 1599 1490 1411 1286 1219 1301 1368 1385 1342 1479 1548 1733 1871 1980 1861 1737 1618 1566 1580 1577 1483 1330 1202 1213 1289 1396 1504 1606 1680 1756 1813 1944 2026 2057 2177 2313 2427 2473 2394 2400 2288 2184 2178 2181 2022 1876 1780 1703 1718 1839 1964 2100 2128 2263 2336 2319 2307 2302 2440 2509 2443 2445 2485 2524 2465 2483 2385 2326 2278 2249 2152 2093 2012 1927 1777 1635 1577 1647 1766 1887 2050 2229 2369 2365 2332 2333 2313 2255 2128 1940 1805 1624 1626 1725 1889 2083 2233 2383 2581 2447 2333 2300 2339
1577 1489 1452 1363 1322 1224 1228 1304 1418 1476 1408 1338 1220 1124 1045 982 895 819 766 734 721 815 958 1105 1225 1319 1403 1485 1562 1665 1731 1795 1911 1899 1877 1850 1835 1799 1766 1712 1632 1612 1728 1892 2019 2119 2222 2239 2249 2285 2264 2207 2178 2117 2050 2008 1965 1923 1841 1755 1613 1503 1565 1489 1414 1294 1268 1288 1459 1572 1537 1476 1621 1656 1740 1871 1848 1778 1730 1681 1631 1706 1642 1551 1424 1231 1189 1239 1384 1512 1599 1652 1681 1727 1811 1877 1991 2076 2182 2312 2438 2543 2397 2258 2228 2245 2137 2010 1910 1859 1774 1737 1845 1980 2151 2186 2286 2395 2398 2445 2409 2403 2533 2486 2507 2569 2549 2465 2453 2367 2331 2209 2015 1981 1898 1845 1825 1698 1608 1554 1631 1745 1869 2036 2189 2344 2392 2343 2285 2236 2141 2070 1891 1748 1609 1667 1766 1915 2045 2254 2468 2641 2498 2450 2339 2409
1615 1529 1427 1317 1248 1229 1297 1390 1459 1384 1344 1272 1175 1062 970 904 877 859 780 751 720 763 874 1022 1131 1236 1289 1388 1479 1583 1657 1742 1882 1949 1906 1906 1883 1867 1808 1765 1698 1625 1707 1836 1950 2061 2162 2126 2131 2180 2211 2155 2111 2080 2005 1948 1896 1878 1806 1773 1659 1559 1411 1381 1315 1307 1315 1401 1565 1681 1656 1598 1770 1803 1807 1899 1876 1876 1842 1739 1727 1784 1722 1594 1432 1294 1197 1234 1344 1480 1644 1720 1739 1781 1799 1861 1932 1997 2110 2235 2345 2494 2445 2311 2305 2264 2108 2035 1969 1909 1794 1816 1892 1971 2146 2275 2358 2423 2432 2485 2481 2417 2514 2540 2558 2637 2452 2341 2319 2262 2179 2088 1949 1841 1778 1763 1736 1682 1611 1554 1593 1720 1880 2044 2208 2362 2395 2321 2246 2193 2088 2028 1848 1759 1594 1676 1789 1939 2076 2301 2463 2628 2568 2514 2433 2474
1571 1471 1376 1252 1231 1310 1424 1508 1457 1339 1221 1164 1091 1012 989 1032 996 942 864 784 738 769 823 957 1044 1098 1169 1293 1379 1503 1645 1773 1897 1929 1967 1951 1922 1912 1858 1828 1776 1668 1703 1810 1898 2049 2123 2063 2062 2084 2137 2104 2038 1994 1906 1821 1780 1742 1669 1639 1607 1510 1384 1312 1308 1388 1423 1519 1625 1669 1659 1609 1665 1740 1825 1893 1972 1949 1878 1810 1779 1828 1728 1588 1512 1351 1213 1213 1341 1457 1578 1707 1856 1904 1920 1867 1917 1974 2085 2248 2334 2463 2460 2306 2228 2176 2108 2032 2001 1956 1880 1836 1929 2045 2208 2313 2325 2313 2407 2542 2529 2477 2559 2558 2533 2460 2337 2200 2189 2186 2061 1944 1850 1786 1851 1851 1852 1826 1695 1622 1621 1716 1841 2017 2149 2318 2347 2296 2243 2143 2066 1975 1838 1736 1637 1704 1824 1994 2162 2322 2461 2575 2476 2478 2534 2500
1511 1396 1311 1247 1305 1411 1494 1540 1396 1295 1183 1126 1071 1102 1131 1145 1098 1061 939 823 773 761 818 908 999 1128 1216 1343 1467 1525 1673 1803 1795 1818 1878 1968 1990 1942 1903 1882 1791 1691 1691 1796 1892 2026 2087 2040 1994 1964 2013 2029 1977 1908 1779 1734 1690 1628 1600 1567 1521 1469 1407 1375 1390 1439 1491 1530 1614 1682 1686 1628 1610 1680 1753 1856 1983 1935 1920 1854 1834 1862 1795 1675 1577 1419 1249 1210 1335 1421 1556 1685 1843 1994 2051 2003 2018 2086 2083 2230 2332 2383 2335 2227 2187 2139 2135 2096 2088 2045 1915 1857 1918 2087 2207 2218 2140 2165 2242 2379 2436 2571 2470 2409 2340 2295 2218 2154 2153 2110 1952 1854 1787 1796 1932 1965 1955 1928 1797 1733 1715 1721 1832 2003 2177 2311 2275 2236 2200 2133 2055 2011 1948 1764 1654 1733 1848 2007 2174 2349 2392 2428 2385 2389 2466 2649
1443 1326 1271 1290 1394 1514 1583 1482 1343 1248 1144 1144 1203 1265 1282 1300 1229 1141 1002 890 822 758 779 890 976 1100 1240 1399 1512 1603 1686 1731 1715 1759 1822 1857 1930 1985 1952 1916 1831 1717 1669 1779 1874 1994 2055 2021 1974 1923 1903 1917 1860 1810 1715 1654 1629 1607 1544 1515 1483 1415 1412 1404 1431 1462 1544 1592 1647 1728 1746 1685 1658 1648 1741 1849 1961 2006 1980 1932 1927 1908 1818 1732 1622 1456 1328 1228 1335 1410 1520 1643 1799 1954 2107 2099 2178 2131 2118 2212 2208 2291 2322 2221 2184 2183 2272 2268 2127 2050 1958 1896 1971 2070 2185 2102 2097 2143 2276 2333 2352 2445 2379 2266 2232 2296 2339 2255 2238 2069 1896 1821 1833 1929 2040 2117 2114 2092 2040 1924 1806 1693 1783 1955 2149 2286 2268 2201 2177 2206 2180 2081 1926 1768 1674 1708 1898 2037 2096 2136 2222 2306 2302 2315 2409 2527
1391 1299 1284 1402 1472 1574 1535 1440 1306 1217 1180 1244 1333 1360 1396 1352 1230 1125 1005 935 847 785 755 832 963 1128 1265 1403 1487 1544 1644 1628 1669 1672 1710 1781 1874 1992 2018 1965 1846 1750 1696 1766 1860 1985 2070 2030 1957 1910 1853 1818 1775 1710 1683 1712 1794 1727 1682 1596 1465 1408 1395 1414 1436 1461 1523 1673 1704 1708 1791 1824 1727 1666 1726 1812 1927 2036 2040 1966 1960 1949 1876 1746 1637 1516 1379 1230 1299 1383 1517 1655 1795 1911 2022 2080 2224 2231 2156 2229 2260 2285 2354 2246 2253 2327 2365 2260 2157 2039 1980 1938 1998 2048 2085 2096 2228 2257 2294 2405 2472 2504 2389 2311 2268 2362 2402 2319 2180 2045 1890 1870 1927 1994 2084 2200 2210 2231 2229 2045 1860 1713 1766 1918 2118 2279 2346 2305 2308 2241 2167 2036 1875 1738 1666 1707 1874 1950 2004 2032 2097 2172 2242 2243 2333 2446
1370 1288 1359 1470 1547 1589 1499 1385 1263 1206 1286 1375 1452 1463 1433 1367 1247 1140 1122 1042 925 799 757 803 958 1119 1220 1333 1398 1475 1518 1506 1533 1563 1648 1732 1806 1933 2064 1997 1921 1807 1726 1801 1896 2034 2118 2051 1956 1889 1830 1772 1705 1697 1790 1903 1903 1888 1821 1699 1556 1449 1411 1427 1440 1470 1526 1605 1713 1778 1829 1907 1790 1685 1709 1809 1896 2001 2103 2058 2036 2052 1950 1793 1674 1566 1463 1331 1265 1374 1532 1628 1729 1816 1893 1965 2096 2199 2254 2285 2297 2307 2330 2373 2437 2479 2343 2259 2208 2081 2011 1981 1966 1975 1988 2103 2264 2362 2414 2464 2531 2531 2454 2412 2375 2437 2418 2298 2175 2038 1946 1960 2019 2019 2133 2262 2281 2338 2246 2079 1895 1741 1771 1908 2106 2258 2370 2276 2230 2188 2112 1941 1814 1699 1679 1735 1840 1922 1954 2009 2081 2166 2261 2284 2346 2392
1344 1311 1457 1571 1638 1624 1466 1347 1264 1256 1373 1480 1527 1500 1493 1393 1320 1288 1179 1081 996 862 764 807 973 1070 1156 1226 1307 1326 1372 1410 1484 1552 1639 1722 1828 1944 2079 2069 1968 1853 1775 1782 1896 2053 2096 2030 1969 1879 1797 1726 1739 1793 1912 1959 1960 1899 1816 1741 1666 1498 1406 1441 1506 1537 1550 1601 1702 1846 1893 1907 1797 1756 1738 1850 1910 1974 2079 2168 2123 2037 1952 1806 1695 1601 1476 1347 1262 1390 1498 1563 1666 1710 1805 1883 1974 2048 2139 2302 2413 2490 2464 2516 2562 2577 2406 2292 2304 2213 2098 1975 1966 1973 1995 2125 2269 2378 2470 2515 2584 2607 2560 2515 2481 2539 2401 2272 2135 2122 2049 2031 2097 2136 2215 2304 2451 2368 2259 2051 1862 1754 1788 1921 2074 2245 2358 2231 2132 2116 2040 1875 1765 1726 1743 1807 1860 1901 1940 2056 2244 2343 2379 2327 2359 2368
1319 1366 1496 1605 1668 1581 1481 1368 1263 1321 1429 1531 1598 1546 1508 1458 1394 1339 1227 1106 1018 881 802 843 961 1042 1110 1142 1181 1250 1326 1400 1488 1597 1704 1750 1887 2041 2129 2069 1996 1906 1829 1815 1895 1993 2083 2058 1932 1857 1822 1824 1836 1924 2021 2068 2040 1913 1861 1758 1659 1505 1422 1529 1564 1608 1597 1633 1713 1807 1912 2003 1866 1839 1792 1832 1966 2032 2079 2131 2087 1965 1857 1765 1694 1608 1464 1333 1276 1361 1450 1527 1607 1648 1727 1802 1882 1961 2081 2218 2339 2450 2586 2604 2657 2620 2466 2336 2350 2324 2109 1974 1963 1969 1998 2122 2280 2398 2472 2562 2615 2663 2623 2586 2579 2562 2321 2137 2132 2132 2049 2049 2132 2217 2295 2369 2422 2301 2201 2039 1903 1783 1760 1882 2068 2233 2258 2197 2071 2034 1949 1838 1771 1770 1821 1860 1938 1979 1979 2122 2318 2499 2448 2352 2387 2443
1337 1445 1546 1630 1649 1590 1483 1298 1281 1404 1498 1586 1634 1596 1558 1511 1436 1385 1273 1142 1051 945 825 848 885 974 1060 1181 1269 1359 1394 1404 1443 1574 1726 1835 1886 2000 2134 2124 2046 2002 1953 1853 1864 1973 2058 2068 2045 2000 1997 2004 1942 1989 2057 2048 1950 1868 1813 1711 1597 1544 1503 1578 1641 1661 1667 1714 1763 1782 1872 2014 1951 1878 1894 1896 1991 2112 2100 2068 2029 1906 1759 1665 1631 1535 1456 1346 1244 1332 1492 1608 1716 1755 1775 1824 1871 1956 2057 2194 2267 2362 2469 2630 2685 2650 2501 2444 2327 2195 2045 1988 1955 1981 2058 2173 2312 2415 2487 2591 2673 2751 2709 2662 2525 2389 2197 2126 2205 2217 2139 2100 2151 2240 2400 2452 2377 2236 2115 1979 1905 1847 1798 1864 2047 2232 2179 2149 2096 2023 1881 1822 1823 1842 1893 2005 2052 2052 1993 2117 2391 2538 2464 2410 2442 2481
1392 1505 1602 1662 1677 1582 1446 1300 1343 1496 1625 1676 1690 1655 1618 1528 1482 1391 1301 1179 1068 985 872 809 872 971 1087 1241 1341 1418 1467 1491 1439 1549 1673 1751 1883 2024 2123 2186 2134 2141 2041 1940 1889 1933 2059 2233 2172 2107 2065 2055 2030 2008 1938 1929 1864 1765 1703 1649 1656 1606 1505 1618 1716 1698 1769 1786 1800 1840 1854 1935 1996 1944 1879 1935 2001 2026 1973 1984 1983 1863 1724 1726 1663 1606 1522 1384 1276 1312 1451 1609 1734 1818 1909 1926 1983 2012 2087 2171 2262 2391 2414 2524 2596 2627 2614 2441 2292 2213 2030 1989 1978 2002 2117 2216 2342 2450 2528 2636 2690 2755 2639 2609 2413 2280 2162 2154 2307 2302 2225 2190 2204 2318 2429 2504 2402 2260 2120 2009 1960 1934 1886 1900 2048 2240 2239 2125 2081 1990 1859 1814 1884 1896 2028 2091 2122 2083 2031 2148 2319 2511 2508 2479 2457 2528
1494 1589 1639 1700 1634 1536 1422 1295 1372 1534 1661 1771 1801 1757 1685 1553 1495 1430 1290 1172 1077 993 904 818 900 1019 1115 1268 1388 1496 1561 1574 1526 1527 1645 1753 1884 1993 2032 2056 2078 2055 2054 2000 1951 1984 2105 2232 2212 2190 2181 2214 2157 1972 1893 1807 1738 1697 1693 1695 1641 1577 1562 1637 1747 1761 1892 1889 1904 1886 1850 1952 2060 1957 1901 1937 2031 2053 1988 1900 1837 1797 1782 1807 1782 1687 1583 1457 1289 1286 1402 1546 1654 1787 1943 2082 2145 2186 2185 2236 2354 2450 2500 2526 2546 2595 2570 2456 2283 2205 2058 2045 2071 2068 2143 2271 2380 2476 2545 2627 2719 2661 2550 2462 2310 2200 2164 2226 2361 2366 2346 2308 2335 2404 2474 2520 2429 2290 2190 2094 2101 2104 2032 1942 2054 2212 2297 2176 2039 1949 1859 1858 1952 2042 2127 2182 2154 2081 2082 2129 2253 2427 2568 2559 2521 2548
1554 1671 1691 1701 1645 1566 1436 1307 1384 1525 1638 1747 1852 1807 1724 1601 1484 1416 1303 1203 1101 988 891 833 900 1044 1128 1212 1330 1472 1601 1629 1605 1569 1593 1683 1793 1882 1930 1940 1958 1990 2105 2068 2032 2100 2161 2233 2244 2175 2144 2144 2098 1966 1885 1806 1716 1714 1676 1642 1580 1551 1569 1655 1745 1790 1891 1956 1975 1921 1915 1976 2080 1971 1937 1949 2038 2127 2042 1942 1873 1845 1841 1883 1837 1732 1617 1470 1307 1264 1381 1507 1671 1782 1910 2032 2175 2282 2310 2346 2350 2326 2401 2396 2416 2502 2434 2371 2290 2221 2091 2098 2160 2150 2164 2236 2390 2510 2554 2697 2818 2704 2570 2431 2259 2172 2192 2251 2415 2437 2431 2411 2429 2465 2493 2559 2449 2251 2147 2133 2216 2217 2117 2003 2046 2202 2321 2215 2084 1968 1881 1920 2017 2135 2204 2218 2195 2143 2174 2180 2287 2477 2594 2669 2620 2568
1569 1687 1798 1732 1663 1605 1492 1355 1466 1573 1617 1681 1785 1829 1756 1618 1564 1447 1318 1197 1097 984 913 854 910 1041 1162 1267 1354 1462 1612 1686 1693 1674 1629 1630 1703 1745 1806 1868 1908 1947 2035 2097 2100 2173 2201 2090 2058 2066 2039 2010 1955 1887 1844 1772 1706 1653 1606 1552 1542 1569 1611 1735 1820 1836 1915 1999 2035 2012 2043 2025 2078 1996 1980 1990 2055 2112 2044 1967 1917 1934 1944 2008 1843 1740 1623 1502 1359 1272 1359 1457 1603 1690 1839 1959 2093 2231 2227 2234 2292 2268 2302 2250 2293 2425 2393 2346 2256 2242 2106 2147 2215 2253 2237 2301 2422 2497 2630 2714 2801 2605 2484 2443 2354 2301 2248 2307 2479 2506 2503 2521 2531 2552 2597 2492 2395 2229 2142 2162 2315 2387 2215 2064 2067 2228 2369 2276 2196 2113 2046 1998 2107 2192 2299 2266 2283 2322 2302 2361 2396 2596 2605 2577 2497 2478
1612 1747 1859 1842 1749 1615 1459 1392 1499 1621 1666 1704 1739 1785 1739 1673 1542 1446 1323 1183 1112 1004 912 852 881 1030 1144 1278 1380 1468 1629 1720 1743 1722 1735 1704 1746 1750 1788 1894 1907 1952 1986 2057 2161 2193 2118 2018 2001 1976 1944 1933 1913 1859 1816 1778 1669 1632 1572 1551 1550 1591 1686 1870 1884 1898 1998 2084 2123 2065 2130 2129 2196 2084 2017 2022 2092 2143 2067 2007 1975 1991 2043 2033 1919 1772 1656 1530 1409 1292 1313 1463 1598 1722 1837 1933 2042 2146 2133 2172 2188 2173 2258 2175 2210 2312 2275 2217 2225 2276 2215 2271 2308 2251 2246 2317 2357 2468 2539 2633 2660 2613 2533 2520 2444 2325 2334 2391 2499 2590 2645 2593 2614 2617 2571 2526 2425 2240 2178 2233 2374 2450 2316 2082 2064 2212 2357 2345 2309 2252 2210 2147 2173 2210 2288 2368 2418 2458 2428 2382 2415 2566 2669 2591 2484 2419
1658 1785 1909 1885 1709 1544 1439 1408 1507 1574 1690 1755 1771 1798 1746 1673 1590 1506 1341 1224 1122 1000 897 856 903 1019 1137 1266 1402 1514 1639 1765 1827 1790 1817 1812 1813 1813 1847 1889 1951 1949 1996 2068 2162 2188 2054 1993 1954 1951 1921 1915 1857 1846 1823 1728 1629 1599 1556 1550 1601 1699 1768 1945 1933 1955 2070 2150 2184 2184 2279 2356 2274 2135 2085 2117 2156 2139 2040 2049 2050 2096 2059 2015 1953 1813 1660 1580 1486 1340 1314 1428 1585 1697 1852 1950 1993 2049 2055 2048 2074 2089 2094 2059 2080 2136 2120 2162 2282 2269 2347 2366 2349 2277 2258 2272 2372 2410 2456 2541 2522 2545 2641 2522 2424 2382 2366 2427 2527 2580 2725 2729 2702 2725 2623 2515 2390 2238 2210 2344 2465 2391 2324 2091 2044 2145 2340 2444 2401 2362 2334 2256 2273 2226 2296 2469 2507 2586 2493 2506 2489 2537 2666 2625 2510 2430
1690 1802 1888 1763 1654 1518 1442 1449 1573 1617 1660 1733 1838 1872 1749 1653 1547 1461 1344 1218 1091 995 893 874 958 1052 1163 1283 1426 1553 1658 1746 1855 1883 1863 1885 1911 1930 1981 1935 1945 1966 1990 2108 2209 2247 2052 1985 1971 1951 1979 1898 1859 1852 1756 1663 1584 1582 1582 1597 1665 1777 1847 1955 1993 2008 2101 2120 2259 2479 2589 2505 2312 2215 2187 2065 2061 2118 2143 2131 2156 2064 1945 1881 1830 1763 1679 1600 1528 1332 1289 1356 1577 1709 1787 1849 1926 1943 1934 1905 1920 1919 1910 1941 1987 2077 2149 2228 2336 2315 2319 2431 2330 2287 2254 2297 2365 2492 2550 2454 2394 2446 2607 2531 2501 2523 2429 2500 2575 2662 2726 2863 2867 2756 2610 2495 2407 2316 2314 2507 2505 2390 2291 2124 2014 2143 2354 2505 2495 2441 2355 2294 2223 2223 2394 2478 2611 2628 2532 2567 2570 2610 2553 2540 2481 2474
1743 1872 1914 1816 1742 1585 1481 1509 1621 1684 1712 1735 1823 1881 1737 1567 1450 1400 1279 1137 1058 960 912 891 965 1072 1162 1277 1414 1500 1591 1684 1772 1864 1955 1965 1989 2039 2103 2059 1996 1998 2016 2108 2244 2232 2101 2039 2014 1989 1935 1918 1910 1867 1721 1636 1576 1577 1594 1662 1729 1851 1898 1963 2065 2085 2220 2221 2372 2671 2775 2554 2246 2149 2095 2019 1970 2034 2096 2129 2136 2024 1966 1878 1812 1701 1668 1622 1523 1414 1290 1338 1538 1651 1721 1750 1822 1842 1798 1786 1805 1825 1862 1945 2027 2204 2224 2245 2325 2435 2372 2422 2379 2328 2276 2334 2392 2487 2441 2355 2296 2353 2505 2577 2642 2621 2528 2561 2646 2818 2923 2971 2875 2724 2622 2535 2430 2362 2440 2666 2580 2423 2277 2116 2012 2141 2366 2509 2428 2370 2285 2251 2276 2346 2403 2574 2681 2632 2606 2628 2723 2662 2533 2482 2480 2414
1894 1984 2013 1983 1797 1595 1515 1514 1626 1743 1797 1805 1877 1905 1777 1610 1421 1322 1213 1104 1032 958 922 955 1026 1056 1106 1246 1370 1474 1553 1599 1689 1773 1895 2010 2031 2062 2125 2189 2160 2076 2070 2125 2275 2232 2112 2065 2015 1935 1873 1832 1803 1768 1710 1671 1619 1695 1735 1750 1811 1897 1954 2019 2112 2248 2288 2344 2552 2702 2658 2393 2144 2027 1974 1969 1933 1922 1980 2006 1978 1979 1938 1848 1696 1641 1587 1569 1523 1461 1297 1331 1459 1545 1631 1669 1694 1691 1705 1763 1825 1925 1966 2082 2121 2361 2356 2315 2309 2415 2476 2508 2427 2322 2272 2325 2389 2451 2324 2243 2248 2279 2428 2489 2549 2570 2595 2707 2848 2989 3034 2946 2852 2757 2648 2557 2506 2459 2630 2578 2484 2399 2280 2143 2037 2149 2356 2460 2377 2365 2373 2398 2481 2467 2441 2701 2686 2619 2566 2579 2619 2594 2540 2524 2451 2350
2053 2019 1983 1912 1827 1741 1591 1555 1654 1780 1879 1939 1970 1891 1782 1622 1446 1303 1180 1085 1039 956 944 991 1137 1181 1165 1195 1327 1435 1502 1580 1660 1733 1819 1901 1928 2005 2079 2156 2190 2232 2255 2221 2257 2144 2080 2079 2016 1980 1907 1879 1792 1736 1680 1659 1644 1698 1811 1864 1884 1938 1989 2070 2145 2222 2276 2394 2578 2491 2486 2256 2040 1983 1960 1948 1933 1882 1865 1884 1859 1839 1809 1734 1641 1607 1572 1543 1495 1425 1339 1316 1397 1482 1540 1592 1613 1640 1701 1802 1936 2048 2114 2197 2209 2290 2466 2499 2428 2409 2502 2616 2597 2396 2319 2348 2426 2469 2343 2241 2235 2272 2393 2418 2433 2498 2612 2670 2772 2849 3023 2867 2847 2786 2680 2688 2592 2598 2577 2491 2416 2398 2279 2161 2077 2192 2375 2465 2421 2454 2581 2595 2649 2586 2592 2712 2619 2543 2510 2487 2496 2505 2464 2505 2477 2331
2021 1994 1974 1959 1941 1830 1680 1618 1725 1896 2022 2039 1861 1741 1683 1619 1448 1279 1158 1071 1034 997 967 1042 1130 1300 1319 1218 1252 1362 1486 1577 1667 1737 1780 1773 1825 1885 1947 2037 2087 2191 2295 2334 2188 2098 2089 2085 2081 2040 2019 1980 1878 1764 1714 1667 1670 1693 1806 1878 1905 1943 1990 2084 2117 2169 2217 2287 2430 2428 2274 2165 2045 2010 1998 2001 1925 1844 1794 1795 1757 1739 1697 1644 1682 1689 1678 1649 1523 1430 1361 1337 1410 1540 1605 1681 1722 1757 1802 1845 1971 2130 2248 2258 2240 2301 2491 2486 2452 2464 2503 2529 2596 2567 2476 2463 2502 2428 2325 2262 2233 2285 2468 2520 2517 2584 2591 2602 2700 2752 2932 2809 2771 2688 2714 2741 2759 2668 2608 2445 2345 2312 2248 2115 2105 2230 2410 2508 2534 2701 2667 2563 2561 2571 2565 2588 2540 2398 2330 2337 2359 2360 2389 2364 2401 2318
1996 2009 1985 1966 1954 1826 1716 1668 1775 1892 1945 2004 1815 1664 1582 1470 1382 1255 1112 1038 981 1017 1052 1113 1215 1293 1400 1357 1273 1318 1418 1539 1623 1647 1640 1661 1698 1785 1873 1934 1996 2104 2255 2337 2216 2100 2076 2088 2098 2124 2051 2016 1842 1770 1710 1671 1713 1717 1788 1919 1966 1972 1993 2034 2061 2122 2149 2202 2344 2357 2191 2148 2063 2036 2029 1991 1838 1815 1777 1759 1739 1702 1685 1699 1737 1808 1750 1625 1563 1451 1363 1384 1413 1541 1693 1803 1866 1968 1923 1911 2030 2183 2345 2319 2308 2385 2530 2415 2419 2375 2387 2485 2632 2724 2651 2536 2472 2344 2292 2243 2213 2303 2362 2480 2579 2652 2740 2703 2773 2879 2967 2816 2733 2554 2555 2683 2736 2690 2591 2446 2329 2259 2149 2096 2161 2292 2408 2494 2688 2740 2596 2490 2482 2469 2462 2436 2401 2357 2316 2305 2293 2268 2249 2248 2258 2249
1963 1928 1905 1876 1866 1829 1810 1782 1819 1876 1948 2004 1865 1691 1544 1399 1249 1212 1107 1022 983 1065 1150 1265 1296 1368 1427 1435 1380 1307 1350 1453 1529 1515 1521 1581 1664 1718 1756 1825 1908 2017 2120 2244 2236 2157 2156 2110 2041 2040 1974 1948 1879 1822 1725 1711 1744 1761 1817 1952 1997 2064 2078 2074 2064 2085 2117 2203 2282 2324 2214 2136 2109 2063 2018 1945 1876 1807 1797 1779 1758 1743 1739 1756 1814 1891 1814 1723 1610 1478 1340 1371 1446 1501 1597 1691 1841 1980 2035 2014 2087 2207 2365 2491 2489 2455 2380 2372 2333 2288 2322 2462 2621 2658 2534 2421 2320 2284 2223 2164 2178 2216 2301 2424 2551 2652 2757 2841 2937 3013 2869 2772 2693 2501 2529 2655 2694 2646 2597 2536 2457 2335 2198 2140 2259 2338 2400 2470 2627 2656 2587 2552 2517 2463 2410 2375 2339 2350 2360 2337 2277 2250 2225 2217 2172 2230
1996 1928 1885 1868 1829 1827 1814 1806 1838 1881 1942 1964 1813 1728 1568 1431 1347 1263 1133 1036 991 1046 1187 1357 1414 1434 1438 1578 1523 1409 1336 1392 1450 1477 1554 1633 1730 1801 1808 1784 1875 1997 2089 2143 2258 2202 2182 2073 1985 1964 1956 1969 1921 1837 1775 1760 1730 1783 1822 1898 1928 2080 2169 2112 2099 2075 2131 2187 2288 2295 2217 2192 2178 2105 2023 1983 1905 1853 1869 1860 1831 1825 1840 1836 1885 1956 1907 1803 1607 1488 1369 1385 1509 1616 1635 1655 1758 1870 1970 2079 2161 2294 2358 2511 2555 2463 2319 2349 2326 2232 2270 2489 2567 2478 2325 2235 2209 2236 2200 2193 2273 2324 2375 2453 2561 2654 2768 2878 2890 2838 2827 2750 2643 2532 2516 2669 2764 2756 2750 2606 2512 2384 2279 2179 2329 2363 2405 2489 2582 2635 2585 2571 2499 2446 2406 2388 2361 2370 2352 2304 2292 2226 2148 2145 2151 2121
2116 2000 1945 1887 1872 1842 1834 1826 1838 1871 1912 1866 1840 1760 1630 1505 1374 1304 1147 1050 998 1060 1204 1364 1546 1508 1471 1547 1601 1520 1411 1398 1528 1590 1669 1720 1796 1882 1864 1846 1896 2020 2116 2197 2234 2140 2061 2007 2012 2032 2002 2008 1986 1962 1887 1793 1706 1768 1819 1923 1962 2026 2129 2196 2163 2139 2222 2300 2434 2374 2285 2274 2277 2165 2060 1983 1930 1911 1921 1912 1913 1901 1897 1910 1962 1985 1873 1773 1609 1514 1366 1425 1585 1689 1748 1744 1837 1922 1969 2008 2123 2258 2429 2558 2441 2412 2344 2258 2197 2173 2212 2313 2286 2219 2118 2077 2096 2174 2194 2288 2368 2450 2492 2561 2619 2695 2832 2889 2759 2739 2733 2671 2563 2479 2550 2626 2679 2851 2754 2566 2480 2420 2336 2211 2363 2426 2467 2574 2728 2680 2651 2635 2523 2440 2446 2435 2461 2341 2316 2328 2345 2285 2167 2103 2065 2041
2141 2119 2052 1937 1884 1875 1857 1860 1881 1897 1927 1872 1815 1776 1696 1544 1415 1300 1154 1055 1017 1105 1215 1367 1556 1615 1541 1570 1628 1579 1475 1406 1544 1617 1698 1796 1856 1925 1955 1937 1972 2021 2157 2198 2245 2169 2052 2033 2033 2035 2004 2020 2069 1979 1847 1796 1727 1748 1783 1875 1969 2046 2139 2155 2169 2194 2277 2331 2411 2346 2230 2234 2267 2164 2072 2023 1985 1943 1982 1989 1994 1969 1966 1985 2005 1956 1809 1688 1564 1433 1405 1464 1633 1772 1842 1870 1943 1969 1996 2049 2118 2270 2376 2538 2507 2402 2257 2176 2132 2055 2128 2240 2251 2103 1995 1978 2039 2146 2208 2336 2449 2557 2616 2650 2537 2540 2714 2702 2654 2644 2657 2624 2559 2474 2515 2554 2621 2744 2670 2569 2520 2402 2360 2243 2399 2439 2522 2637 2775 2759 2759 2726 2639 2546 2549 2533 2484 2440 2428 2450 2448 2400 2253 2141 2046 1995
2047 2087 2117 2040 1926 1913 1919 1913 1935 1962 1979 1951 1897 1889 1731 1622 1473 1360 1226 1063 1009 1110 1246 1396 1534 1670 1623 1654 1732 1679 1547 1439 1530 1634 1713 1758 1872 1972 2015 2001 2045 2085 2161 2207 2289 2176 2089 2060 2034 2046 2034 1975 1884 1853 1832 1829 1815 1765 1754 1787 1858 1940 2030 2101 2147 2172 2163 2207 2291 2247 2154 2121 2175 2162 2103 2058 2032 1987 2026 2054 2052 2024 2029 2022 1943 1869 1761 1634 1499 1447 1447 1532 1672 1815 1984 1996 2052 2081 2154 2154 2232 2306 2460 2424 2425 2370 2202 2112 2043 1949 2045 2171 2199 2072 1912 1884 1954 2111 2194 2266 2348 2394 2416 2459 2423 2423 2491 2566 2542 2547 2569 2559 2463 2399 2449 2535 2638 2620 2592 2521 2493 2405 2336 2299 2406 2532 2620 2649 2782 2904 2756 2656 2624 2601 2581 2557 2582 2618 2574 2544 2549 2531 2403 2189 2024 1941
2026 2115 2137 2075 2038 1988 1968 1965 1942 1924 1882 1869 1855 1805 1740 1618 1513 1403 1272 1102 1041 1124 1243 1388 1522 1661 1697 1731 1762 1679 1554 1455 1557 1683 1752 1787 1840 1952 2052 2126 2132 2169 2269 2260 2259 2170 2094 2066 2057 2022 1959 1890 1917 1916 1917 1938 1891 1859 1894 1816 1811 1904 1996 2057 2114 2108 2103 2119 2149 2121 2067 2080 2122 2112 2095 2088 2066 2108 2090 2010 1955 1903 1893 1907 1853 1749 1636 1570 1490 1468 1505 1594 1734 1872 1996 2145 2178 2158 2207 2314 2389 2449 2500 2351 2257 2251 2138 2075 1946 1926 2023 2070 2027 1827 1769 1772 1856 1951 1998 2060 2137 2209 2266 2299 2315 2345 2415 2447 2456 2431 2481 2473 2375 2327 2397 2528 2529 2511 2530 2464 2380 2334 2313 2409 2544 2640 2655 2646 2787 2829 2780 2673 2617 2584 2735 2759 2733 2631 2521 2494 2515 2458 2400 2301 2070 1970
1955 2060 2115 2002 1921 1894 1904 1861 1833 1850 1813 1800 1783 1713 1655 1596 1525 1390 1269 1134 1040 1089 1184 1338 1489 1626 1735 1843 1797 1683 1581 1477 1590 1676 1804 1860 1918 1964 2040 2124 2208 2235 2190 2165 2189 2155 2093 2080 2046 1999 1942 1936 1985 2038 2040 2013 1947 1976 1952 1868 1833 1879 2010 2070 2112 2123 2070 2075 2060 2059 2003 1996 2012 2011 1997 1966 1996 2018 1986 1942 1839 1783 1755 1760 1753 1690 1620 1537 1500 1539 1596 1623 1744 1869 2007 2131 2275 2279 2266 2388 2519 2603 2555 2395 2218 2150 2084 1967 1896 1848 1911 1933 1884 1717 1686 1687 1763 1846 1866 1934 2006 2076 2122 2150 2163 2214 2289 2370 2406 2393 2429 2379 2325 2332 2417 2492 2453 2431 2434 2409 2309 2278 2343 2459 2595 2716 2778 2710 2760 2784 2802 2724 2649 2707 2809 2741 2700 2662 2593 2451 2411 2336 2307 2271 2145 1990
1973 1990 2014 1950 1874 1810 1787 1770 1750 1737 1710 1731 1720 1695 1692 1627 1556 1414 1289 1137 1069 1132 1226 1351 1465 1611 1740 1869 1805 1726 1613 1514 1615 1739 1799 1849 1945 2087 2118 2156 2205 2127 2088 2087 2156 2171 2143 2124 2050 1993 2000 2011 2050 2094 2121 2101 2039 2022 1943 1877 1885 1919 1989 2098 2183 2067 2011 2033 2037 1981 1975 1959 1936 1909 1901 1861 1867 1869 1882 1790 1750 1700 1667 1658 1655 1648 1585 1563 1600 1664 1723 1764 1782 1856 1981 2088 2207 2338 2440 2510 2653 2591 2453 2348 2233 2113 2026 1943 1947 1845 1806 1791 1692 1674 1701 1763 1830 1856 1835 1864 1882 1915 1955 1983 2004 2082 2138 2178 2248 2269 2285 2229 2274 2343 2350 2338 2336 2304 2297 2301 2221 2242 2328 2439 2561 2637 2690 2645 2679 2737 2784 2840 2822 2830 2736 2728 2658 2606 2535 2444 2329 2274 2201 2137 2052 1954
2000 2032 2060 2053 1949 1839 1727 1707 1667 1644 1638 1627 1666 1662 1653 1617 1531 1387 1249 1106 1062 1141 1238 1358 1449 1602 1749 1859 1826 1762 1632 1542 1627 1745 1846 1898 1961 2053 2168 2265 2189 2118 2079 2077 2169 2221 2184 2132 2075 2078 2068 2073 2091 2142 2139 2084 2053 1981 1902 1857 1893 1925 1988 2030 2089 2044 1999 2009 1997 1978 1939 1934 1905 1888 1845 1819 1797 1772 1771 1723 1699 1690 1690 1649 1599 1609 1584 1615 1680 1763 1859 1935 1925 1941 2058 2128 2228 2317 2438 2600 2613 2494 2462 2426 2306 2146 2092 2042 2015 1879 1724 1693 1723 1833 1903 1968 1943 2008 1978 1982 1962 1977 2034 2046 2098 2045 2054 2105 2140 2138 2129 2146 2193 2207 2214 2233 2218 2208 2202 2161 2154 2180 2251 2387 2455 2562 2658 2659 2569 2606 2712 2752 2736 2771 2695 2632 2623 2524 2451 2342 2292 2256 2190 2080 1990 1949
2069 2068 2099 2170 2083 1897 1787 1736 1694 1650 1583 1568 1533 1562 1561 1534 1490 1339 1186 1079 1079 1182 1301 1432 1546 1683 1754 1888 1884 1825 1701 1587 1640 1787 1913 1942 1994 2087 2141 2231 2130 2032 2022 2071 2138 2216 2220 2194 2139 2130 2116 2121 2160 2146 2081 2046 1983 1911 1875 1893 2003 2018 2015 2059 2076 2015 1949 1920 1928 1903 1875 1832 1858 1855 1807 1804 1759 1743 1718 1721 1713 1716 1685 1700 1593 1594 1644 1716 1791 1883 2006 2034 2023 2045 2137 2263 2303 2417 2512 2581 2626 2527 2384 2326 2324 2245 2237 2191 2013 1843 1696 1626 1738 1821 1989 2113 2128 2147 2141 2142 2132 2173 2194 2218 2246 2151 2077 2096 2087 2083 2089 2098 2128 2165 2195 2213 2176 2142 2138 2155 2160 2195 2275 2357 2393 2436 2507 2556 2535 2517 2652 2678 2682 2644 2619 2531 2503 2447 2442 2396 2245 2158 2111 2013 1972 1955
2081 2134 2168 2185 2068 1932 1851 1792 1716 1690 1592 1564 1553 1493 1431 1450 1357 1271 1134 1075 1079 1209 1322 1475 1611 1736 1850 1942 1979 1879 1722 1646 1647 1760 1888 2011 2085 2174 2198 2204 2090 2002 1935 1976 2059 2129 2189 2239 2216 2188 2170 2179 2194 2137 2108 2065 1952 1912 1896 1959 2031 2081 2146 2118 2064 1963 1900 1903 1888 1889 1855 1804 1791 1768 1758 1750 1746 1733 1714 1741 1734 1756 1803 1779 1738 1755 1734 1790 1869 1920 2057 2125 2095 2085 2207 2277 2351 2451 2536 2617 2523 2367 2288 2170 2154 2204 2270 2157 2012 1849 1665 1598 1675 1759 1889 2101 2211 2293 2256 2251 2229 2321 2344 2366 2348 2280 2231 2137 2078 2082 2075 2079 2119 2135 2138 2159 2140 2150 2149 2172 2189 2211 2239 2263 2331 2389 2463 2487 2533 2507 2605 2657 2602 2569 2515 2457 2415 2421 2432 2345 2221 2083 2025 1978 1970 2001
2071 2125 2169 2168 2124 1989 1926 1891 1819 1636 1510 1474 1408 1377 1303 1294 1266 1195 1110 1078 1141 1242 1374 1500 1640 1773 1865 1981 1994 1867 1774 1730 1695 1798 1933 2053 2168 2232 2164 2138 2123 2014 1909 1913 1994 2066 2121 2209 2231 2204 2205 2268 2229 2181 2142 2050 1981 1952 1935 2020 2084 2191 2213 2153 2076 1965 1913 1903 1901 1898 1881 1861 1841 1770 1742 1715 1723 1711 1727 1805 1813 1827 1921 1941 1919 1888 1793 1825 1939 2015 2037 2139 2223 2199 2301 2392 2412 2525 2597 2535 2382 2301 2185 2096 2060 2113 2194 2110 1940 1815 1686 1577 1692 1778 1912 2060 2216 2375 2439 2377 2339 2428 2529 2518 2403 2352 2330 2208 2112 2101 2092 2111 2117 2114 2112 2133 2186 2217 2237 2276 2328 2333 2284 2293 2297 2308 2356 2410 2520 2557 2662 2760 2680 2630 2567 2456 2403 2371 2342 2323 2247 2088 2022 2010 2012 2096
2007 2078 2093 2093 2094 2010 1949 1871 1705 1614 1494 1421 1324 1272 1217 1188 1168 1142 1108 1095 1159 1261 1380 1488 1576 1723 1848 1910 1946 1927 1843 1787 1759 1856 2014 2132 2196 2199 2119 2048 2037 1955 1884 1869 1932 2030 2087 2123 2153 2122 2137 2177 2234 2158 2098 2057 2020 2012 2072 2061 2117 2213 2197 2101 2010 1960 1933 1919 1918 1907 1872 1854 1804 1754 1780 1731 1719 1731 1758 1844 1903 1890 1992 2073 2001 1891 1790 1848 1963 2068 2089 2130 2259 2319 2354 2444 2474 2494 2426 2470 2405 2268 2204 2072 2027 2086 2046 1981 1818 1754 1637 1599 1724 1812 1955 2054 2187 2351 2448 2417 2392 2479 2522 2411 2386 2356 2293 2235 2197 2152 2123 2112 2115 2139 2137 2150 2170 2238 2319 2365 2382 2429 2411 2412 2406 2419 2407 2509 2649 2664 2763 2910 2845 2770 2691 2543 2501 2438 2401 2391 2323 2162 2089 2038 2100 2167
1915 1992 1995 2000 2038 1956 1849 1715 1597 1494 1407 1364 1303 1260 1287 1283 1263 1231 1197 1145 1141 1249 1330 1441 1541 1657 1752 1890 1961 1998 1940 1888 1855 1932 2021 2086 2084 2053 2004 1952 1936 1867 1837 1844 1904 1988 2024 2074 2095 2091 2053 2079 2132 2175 2111 2080 2058 2136 2177 2165 2203 2135 2058 2020 2013 1982 1961 1918 1879 1863 1823 1817 1797 1765 1740 1756 1725 1715 1773 1834 1939 1979 1983 2053 2077 1942 1808 1874 1984 2090 2213 2150 2250 2406 2499 2476 2341 2293 2239 2292 2297 2216 2135 2099 2077 2005 1923 1852 1751 1658 1592 1561 1649 1761 1898 1989 2074 2184 2239 2304 2334 2468 2604 2477 2438 2385 2344 2325 2307 2265 2207 2230 2232 2239 2228 2200 2179 2268 2408 2429 2470 2525 2522 2483 2478 2446 2492 2584 2659 2690 2777 2811 2811 2759 2681 2615 2603 2532 2488 2382 2306 2201 2136 2144 2261 2290
1827 1840 1887 1915 1973 1822 1722 1592 1495 1443 1397 1343 1371 1417 1419 1406 1431 1382 1292 1274 1231 1204 1273 1364 1486 1587 1722 1827 1933 2001 2009 1967 1952 2004 2086 2054 2017 1920 1895 1854 1791 1777 1768 1783 1837 1888 1931 1989 2036 2019 1988 2029 2142 2191 2176 2153 2154 2221 2228 2246 2168 2098 2072 2065 2040 2028 2069 2000 1936 1928 1917 1853 1827 1803 1771 1773 1750 1734 1761 1831 1910 2034 2067 2104 2100 1963 1829 1862 2007 2103 2199 2228 2283 2382 2382 2315 2233 2128 2111 2145 2170 2212 2208 2157 2140 2067 2007 1941 1753 1634 1530 1495 1593 1696 1830 1892 1986 2090 2167 2276 2383 2519 2604 2551 2568 2549 2427 2410 2393 2375 2393 2386 2369 2369 2379 2305 2257 2226 2319 2454 2526 2638 2627 2581 2503 2465 2477 2553 2667 2699 2739 2820 2725 2644 2636 2674 2633 2517 2456 2460 2438 2308 2244 2283 2294 2319
1727 1745 1756 1759 1777 1703 1636 1566 1441 1423 1400 1391 1487 1477 1468 1466 1461 1434 1361 1286 1259 1256 1263 1301 1402 1522 1662 1771 1863 1940 2027 2004 1969 2000 2110 2058 2006 1875 1832 1755 1724 1714 1713 1731 1771 1829 1884 1955 1974 1959 1980 2045 2158 2241 2239 2213 2236 2263 2270 2226 2172 2119 2103 2089 2079 2177 2137 2061 2050 2066 2003 1927 1875 1842 1820 1809 1793 1749 1793 1821 1889 1926 2103 2079 2033 1950 1851 1859 1955 2043 2120 2234 2360 2325 2208 2174 2084 2041 2035 2052 2095 2126 2138 2092 2017 1960 1944 1884 1763 1638 1540 1463 1531 1664 1750 1841 1947 2101 2241 2287 2367 2454 2485 2476 2562 2654 2550 2484 2455 2481 2531 2571 2492 2449 2462 2388 2312 2242 2289 2442 2515 2577 2586 2573 2536 2469 2493 2605 2730 2790 2753 2706 2667 2558 2521 2552 2615 2512 2491 2602 2542 2441 2395 2409 2433 2430
1655 1645 1641 1658 1662 1589 1539 1475 1430 1437 1425 1465 1554 1653 1586 1563 1567 1509 1418 1353 1282 1247 1284 1380 1397 1481 1582 1671 1787 1883 1997 2051 2067 2032 2077 2054 1965 1848 1755 1696 1682 1726 1773 1808 1822 1825 1832 1852 1917 1943 2020 2075 2214 2164 2096 2135 2217 2251 2306 2276 2213 2165 2150 2177 2173 2250 2157 2102 2157 2130 2006 1937 1916 1863 1851 1832 1798 1808 1780 1822 1860 1901 1972 2015 1979 1916 1841 1872 1941 2010 2078 2174 2261 2196 2085 2037 1971 1967 2006 1978 1999 2036 2062 1993 1942 1894 1867 1820 1777 1684 1610 1530 1491 1566 1669 1786 1924 2049 2124 2195 2293 2415 2370 2404 2479 2584 2639 2600 2632 2640 2668 2643 2570 2602 2509 2429 2346 2312 2346 2468 2521 2605 2680 2620 2597 2518 2536 2649 2799 2702 2618 2568 2578 2562 2478 2470 2485 2549 2549 2585 2606 2495 2493 2465 2551 2567
1674 1679 1673 1680 1615 1517 1472 1462 1479 1559 1556 1539 1645 1691 1627 1645 1651 1598 1470 1388 1325 1267 1255 1410 1427 1439 1540 1648 1750 1830 1862 1924 2000 1927 2003 1971 1894 1785 1702 1674 1718 1839 1882 1901 1890 1867 1905 1922 1932 1986 2031 2126 2165 2102 2022 2055 2123 2149 2184 2269 2281 2243 2251 2276 2314 2269 2217 2214 2184 2107 2002 1974 1905 1866 1848 1820 1817 1843 1782 1812 1838 1852 1929 1954 1967 1903 1842 1857 1950 2013 2057 2136 2204 2100 2033 2001 1935 1939 1951 1987 1981 2061 2003 1909 1867 1841 1846 1826 1751 1681 1599 1558 1451 1500 1604 1754 1887 1934 2025 2156 2264 2295 2256 2353 2453 2561 2532 2559 2585 2548 2524 2488 2508 2628 2499 2415 2391 2425 2427 2465 2565 2665 2774 2707 2654 2622 2611 2720 2745 2648 2580 2561 2572 2496 2480 2492 2476 2450 2496 2539 2617 2576 2492 2538 2615 2623
1719 1737 1730 1724 1674 1624 1545 1524 1590 1696 1708 1647 1717 1706 1703 1736 1710 1644 1570 1458 1370 1281 1256 1317 1409 1411 1441 1580 1675 1746 1763 1821 1882 1883 1952 1943 1775 1692 1657 1699 1779 1854 1929 1971 1963 1941 1943 1983 1997 2001 2050 2090 2113 2029 1957 2004 2043 2040 2039 2093 2137 2210 2258 2288 2284 2287 2287 2222 2090 2033 1991 1940 1933 1899 1916 1868 1841 1851 1781 1754 1796 1818 1854 1882 1899 1861 1840 1886 1974 2043 2123 2172 2214 2144 2034 1987 1924 1881 1929 1924 1955 2000 2006 1913 1857 1862 1888 1864 1800 1714 1611 1571 1470 1475 1527 1663 1772 1901 1994 2072 2164 2161 2214 2309 2369 2422 2452 2470 2444 2411 2383 2393 2491 2604 2506 2417 2445 2439 2437 2521 2596 2687 2783 2772 2664 2668 2713 2735 2756 2641 2595 2614 2628 2664 2638 2567 2507 2486 2451 2543 2637 2600 2530 2638 2675 2651
1751 1756 1804 1848 1774 1717 1700 1659 1750 1807 1825 1747 1762 1757 1776 1767 1748 1683 1606 1509 1416 1376 1280 1282 1394 1408 1447 1539 1612 1672 1685 1756 1812 1825 1866 1869 1743 1652 1661 1758 1851 1918 1995 2021 2008 1985 1987 2027 2022 2050 2116 2098 2025 1989 1913 1934 1975 1982 1924 1939 1991 2076 2118 2167 2195 2259 2252 2152 2137 2116 2060 1984 1983 1985 1999 1948 1833 1806 1775 1728 1734 1781 1811 1815 1853 1818 1800 1870 1975 2072 2100 2099 2126 2117 2047 1969 1918 1873 1897 1899 1932 1976 1990 2030 1931 1919 1922 1929 1888 1776 1662 1611 1499 1433 1543 1645 1728 1844 1943 2028 2061 2079 2151 2201 2238 2309 2351 2418 2422 2345 2317 2345 2471 2536 2532 2449 2470 2458 2470 2509 2577 2657 2703 2788 2699 2752 2813 2799 2760 2741 2706 2634 2576 2593 2548 2504 2455 2436 2413 2496 2543 2565 2587 2583 2553 2558
1784 1801 1794 1877 1894 1864 1794 1782 1765 1764 1798 1789 1827 1797 1797 1783 1727 1687 1594 1523 1448 1411 1295 1332 1414 1427 1439 1450 1515 1544 1580 1634 1697 1732 1729 1747 1695 1634 1692 1798 1916 2027 2094 2063 2042 1995 2021 2060 2074 2095 2067 2017 1935 1903 1870 1865 1883 1854 1777 1807 1822 1888 1955 2039 2096 2178 2213 2218 2184 2110 2079 2115 2081 2095 2016 1935 1865 1831 1785 1739 1707 1760 1776 1782 1798 1793 1795 1836 1894 1948 1961 1986 1993 2032 1977 1960 1895 1858 1905 1915 1938 1974 2015 2072 2061 1995 1952 1982 1935 1820 1722 1653 1555 1436 1470 1593 1686 1811 1949 1977 1971 2016 2104 2132 2170 2203 2302 2409 2315 2267 2285 2334 2377 2409 2492 2585 2595 2606 2611 2619 2572 2620 2649 2777 2801 2743 2679 2613 2655 2623 2585 2541 2434 2469 2499 2453 2386 2307 2318 2335 2372 2369 2398 2436 2424 2428
1847 1847 1838 1900 1880 1824 1774 1757 1784 1754 1783 1827 1839 1821 1753 1717 1684 1676 1621 1535 1508 1411 1357 1368 1454 1521 1484 1505 1476 1482 1517 1543 1579 1612 1636 1672 1663 1630 1718 1858 1946 2052 2139 2118 2114 2099 2119 2134 2134 2133 2031 1996 1929 1855 1782 1763 1754 1757 1735 1725 1731 1788 1833 1925 1978 2079 2170 2236 2187 2155 2213 2133 2074 2008 1968 1954 1904 1854 1774 1749 1717 1729 1750 1726 1754 1780 1789 1824 1858 1885 1901 1929 1978 1952 1917 1937 1886 1872 1885 1906 1959 2027 2051 2055 2129 2041 1958 1980 1918 1817 1774 1727 1608 1532 1415 1497 1595 1732 1819 1860 1976 2032 2060 2101 2160 2216 2300 2326 2232 2228 2234 2262 2280 2339 2395 2449 2495 2637 2789 2765 2682 2694 2723 2821 2761 2669 2603 2528 2520 2544 2434 2386 2341 2359 2403 2426 2360 2263 2258 2262 2281 2287 2283 2293 2325 2346
1932 1894 1915 1875 1846 1795 1765 1761 1759 1761 1789 1828 1804 1777 1731 1712 1693 1635 1609 1562 1469 1382 1327 1368 1516 1598 1576 1543 1543 1554 1533 1559 1576 1600 1640 1665 1610 1654 1779 1890 1991 2118 2188 2153 2153 2151 2193 2219 2115 2054 2006 1951 1893 1820 1712 1692 1677 1693 1722 1785 1790 1755 1780 1836 1872 1955 2067 2148 2198 2216 2167 2130 2134 2087 2045 1982 1898 1801 1785 1761 1755 1721 1703 1705 1696 1723 1757 1793 1816 1854 1876 1908 1923 1893 1897 1912 1876 1835 1870 1937 2007 2042 2006 1991 2091 2110 2007 2006 2009 1891 1822 1820 1724 1606 1458 1419 1517 1606 1715 1798 1829 1883 1935 2021 2098 2235 2339 2232 2139 2137 2101 2167 2236 2304 2421 2452 2505 2636 2744 2771 2722 2785 2864 2777 2725 2667 2462 2426 2414 2402 2403 2361 2327 2289 2248 2290 2254 2219 2211 2226 2281 2332 2291 2279 2284 2300
1941 1919 1947 1921 1883 1825 1795 1757 1773 1793 1792 1803 1823 1832 1826 1809 1676 1623 1571 1511 1413 1340 1353 1454 1551 1613 1631 1612 1629 1594 1590 1599 1617 1604 1632 1629 1583 1673 1813 1925 2040 2116 2196 2245 2244 2220 2097 2035 1978 1959 1945 1903 1841 1746 1658 1655 1727 1791 1850 1911 1917 1873 1827 1789 1821 1889 1990 2081 2127 2132 2164 2137 2072 2068 1994 1920 1853 1846 1829 1810 1777 1754 1711 1690 1660 1693 1735 1751 1797 1814 1816 1846 1857 1862 1867 1862 1842 1830 1844 1878 1941 1992 1918 1947 1996 2131 2081 2098 2023 1953 1816 1824 1738 1669 1554 1408 1440 1561 1652 1741 1768 1809 1899 2024 2183 2354 2265 2135 2038 2018 2001 2026 2121 2211 2267 2370 2435 2532 2666 2707 2684 2711 2711 2619 2565 2528 2528 2443 2411 2402 2405 2368 2305 2276 2250 2217 2192 2186 2182 2194 2216 2311 2371 2325 2348 2337
2031 2003 1997 1956 1906 1828 1810 1829 1870 1895 1872 1894 1902 1908 1861 1781 1676 1618 1565 1483 1386 1338 1407 1505 1567 1639 1671 1680 1670 1664 1675 1681 1648 1655 1632 1573 1604 1709 1824 1899 2002 2130 2225 2221 2141 2073 1972 1917 1848 1819 1777 1758 1745 1707 1632 1677 1783 1882 1903 1982 1990 1942 1909 1860 1820 1855 1932 2016 2115 2129 2113 2089 2029 1984 1941 1895 1897 1873 1872 1841 1802 1773 1706 1667 1652 1655 1682 1705 1734 1740 1736 1779 1802 1855 1841 1826 1795 1811 1835 1873 1901 1944 1891 1903 1919 2024 2141 2150 2103 2039 1801 1705 1675 1658 1592 1447 1473 1579 1636 1716 1751 1789 1852 2003 2154 2248 2155 2084 1952 1898 1902 1921 2046 2119 2224 2299 2389 2529 2639 2652 2754 2774 2723 2669 2604 2621 2559 2492 2430 2408 2358 2361 2379 2351 2281 2261 2241 2183 2194 2187 2231 2317 2438 2413 2385 2462
2217 2152 2151 2094 2029 1946 1865 1868 1883 1910 1930 1937 1957 1914 1885 1800 1666 1630 1578 1447 1374 1383 1465 1528 1607 1667 1689 1680 1673 1667 1709 1716 1701 1682 1615 1554 1612 1716 1810 1879 2003 2119 2207 2124 2081 1932 1830 1786 1668 1628 1607 1601 1573 1593 1664 1701 1830 1942 2020 2020 2044 2024 1978 1966 1890 1844 1876 1950 2070 2150 2149 2104 2039 1986 1926 1907 1946 1923 1912 1873 1856 1777 1743 1678 1653 1618 1626 1635 1670 1691 1702 1726 1785 1812 1808 1774 1752 1765 1815 1846 1867 1857 1846 1867 1899 1933 2010 2077 2110 1994 1808 1688 1648 1590 1567 1490 1434 1536 1598 1641 1687 1762 1850 1924 2037 2106 2016 1944 1850 1840 1892 1969 2046 2149 2210 2271 2355 2460 2556 2695 2833 2899 2812 2711 2726 2710 2590 2470 2422 2392 2407 2461 2463 2380 2378 2381 2359 2265 2180 2185 2223 2351 2445 2472 2452 2523
2343 2311 2316 2184 2095 2071 2021 1997 1963 1921 1898 1908 1907 1926 1903 1746 1631 1587 1539 1451 1397 1447 1484 1524 1621 1683 1684 1676 1653 1642 1637 1641 1654 1639 1579 1534 1591 1707 1812 1903 2008 2106 2072 1998 1940 1863 1693 1651 1562 1535 1520 1549 1574 1602 1698 1742 1811 1928 2021 2084 2123 2130 2040 2003 1933 1860 1868 1906 2029 2119 2172 2145 2071 1982 1956 1965 1975 1966 1959 1954 1890 1803 1764 1700 1660 1644 1619 1605 1620 1646 1663 1656 1697 1750 1740 1701 1687 1731 1793 1828 1847 1821 1807 1822 1825 1853 1879 1931 2023 1949 1818 1697 1586 1515 1512 1441 1410 1489 1532 1585 1601 1690 1779 1848 1993 1975 1901 1841 1830 1900 1985 2046 2081 2183 2285 2332 2332 2445 2572 2640 2784 2918 2910 2814 2802 2754 2689 2534 2488 2497 2566 2577 2566 2468 2432 2405 2375 2252 2212 2189 2223 2359 2475 2490 2471 2575
2203 2273 2338 2182 2118 2221 2112 2078 2077 2029 1999 1964 1913 1902 1859 1792 1651 1618 1468 1432 1441 1519 1526 1554 1608 1643 1671 1699 1672 1639 1620 1591 1572 1545 1530 1519 1601 1679 1755 1844 1943 2007 2022 1861 1752 1683 1580 1534 1504 1569 1643 1637 1669 1708 1724 1784 1835 1935 2057 2085 2143 2089 2039 2044 2015 1911 1882 1911 2015 2101 2178 2160 2182 2084 2029 2033 2025 2012 1945 1908 1845 1817 1758 1704 1671 1624 1614 1583 1603 1609 1604 1641 1634 1649 1649 1664 1639 1674 1733 1771 1747 1778 1760 1742 1759 1781 1832 1859 1940 1863 1746 1662 1570 1511 1482 1411 1408 1438 1456 1498 1624 1767 1861 1920 1896 1865 1753 1779 1873 2029 2107 2132 2137 2266 2427 2459 2343 2451 2528 2711 2880 2950 3000 2945 2938 2825 2746 2643 2580 2624 2572 2506 2448 2386 2351 2265 2188 2168 2176 2195 2274 2442 2484 2561 2525 2639
2138 2190 2242 2223 2213 2255 2123 2042 2022 2102 2096 2082 2064 2009 1874 1784 1690 1602 1429 1489 1497 1531 1562 1592 1608 1630 1656 1628 1616 1601 1575 1566 1532 1514 1495 1482 1570 1609 1677 1769 1866 1922 1935 1794 1648 1571 1524 1491 1539 1630 1694 1716 1770 1781 1763 1797 1856 1947 2048 2159 2187 2120 2066 2117 2139 2020 1914 1930 2054 2173 2245 2218 2175 2145 2160 2151 2087 1993 1962 1898 1836 1766 1744 1683 1653 1623 1612 1605 1598 1575 1580 1600 1580 1583 1578 1592 1606 1666 1730 1715 1704 1745 1720 1686 1697 1737 1735 1769 1786 1816 1721 1661 1582 1469 1407 1349 1337 1395 1400 1488 1625 1777 1844 1800 1744 1709 1728 1826 1948 2056 2210 2175 2193 2256 2430 2489 2390 2488 2573 2688 2745 2798 2880 3009 2969 2926 2854 2704 2643 2648 2556 2470 2338 2278 2240 2156 2173 2171 2218 2299 2316 2469 2527 2574 2585 2712
2102 2133 2146 2177 2265 2288 2129 2026 2049 2171 2159 2137 2124 2094 1980 1852 1707 1595 1471 1520 1623 1681 1613 1584 1653 1648 1623 1620 1609 1601 1595 1595 1582 1549 1502 1479 1483 1516 1591 1685 1784 1849 1843 1654 1569 1498 1482 1525 1600 1677 1755 1816 1844 1843 1853 1877 1951 2030 2156 2239 2230 2211 2174 2280 2281 2145 2050 2042 2126 2231 2290 2242 2183 2198 2149 2060 2029 1975 1934 1876 1812 1733 1712 1671 1687 1696 1697 1685 1653 1628 1562 1568 1561 1558 1559 1556 1591 1645 1690 1669 1641 1658 1643 1640 1659 1671 1647 1645 1701 1737 1756 1704 1579 1458 1353 1291 1302 1328 1358 1474 1606 1648 1662 1654 1642 1676 1762 1867 2057 2158 2275 2282 2210 2228 2326 2433 2409 2518 2707 2697 2702 2726 2823 2853 2856 2924 2767 2653 2546 2531 2561 2461 2350 2214 2124 2007 2047 2162 2217 2292 2329 2471 2548 2597 2573 2669
2041 2096 2120 2140 2177 2251 2066 2046 2129 2198 2198 2247 2178 2152 2109 1979 1668 1585 1541 1646 1799 1842 1718 1611 1646 1668 1635 1626 1639 1674 1672 1676 1657 1641 1617 1534 1473 1519 1539 1637 1717 1763 1693 1607 1525 1462 1518 1634 1695 1754 1837 1894 1937 1908 1924 1978 2034 2153 2275 2409 2398 2364 2328 2431 2369 2211 2125 2183 2195 2247 2337 2314 2170 2121 2062 2017 1984 1953 1907 1859 1776 1724 1699 1721 1762 1770 1747 1729 1698 1650 1624 1536 1534 1520 1534 1574 1600 1645 1642 1611 1620 1612 1609 1610 1620 1641 1623 1613 1650 1622 1669 1652 1544 1457 1365 1292 1298 1321 1358 1456 1489 1543 1592 1644 1690 1741 1818 1907 2053 2189 2277 2361 2337 2301 2338 2431 2406 2491 2676 2728 2714 2726 2758 2759 2814 2814 2706 2568 2500 2475 2452 2445 2358 2231 2108 1958 1964 2100 2182 2244 2335 2459 2556 2593 2589 2683
2059 2077 2087 2110 2132 2123 2055 2131 2296 2341 2331 2350 2221 2157 2183 2056 1828 1689 1685 1808 1826 1855 1792 1685 1691 1695 1634 1630 1707 1782 1776 1737 1739 1751 1730 1646 1492 1459 1493 1597 1658 1626 1529 1494 1463 1458 1566 1693 1810 1879 1948 1999 2013 1997 2012 2060 2100 2178 2223 2310 2350 2409 2392 2371 2295 2250 2237 2232 2223 2226 2276 2302 2168 2091 2061 2015 1960 1929 1905 1789 1754 1740 1746 1799 1827 1810 1796 1798 1748 1716 1651 1574 1529 1517 1513 1550 1564 1569 1603 1565 1570 1585 1606 1602 1588 1604 1595 1559 1573 1561 1551 1545 1491 1429 1356 1329 1298 1338 1390 1493 1521 1578 1635 1698 1779 1799 1873 1915 1968 2056 2161 2239 2340 2451 2495 2551 2499 2560 2646 2771 2752 2731 2733 2755 2847 2785 2673 2529 2396 2356 2312 2365 2256 2203 2124 1963 2028 2126 2160 2189 2279 2444 2548 2634 2656 2715
2211 2259 2192 2155 2117 2092 2108 2219 2390 2365 2347 2383 2322 2232 2062 1952 1862 1793 1852 1950 1948 1900 1872 1841 1766 1700 1661 1674 1697 1810 1877 1817 1809 1799 1806 1737 1563 1486 1444 1543 1604 1527 1488 1425 1413 1479 1631 1720 1837 1946 2055 2116 2101 2078 2110 2141 2172 2199 2213 2256 2331 2386 2416 2332 2299 2281 2249 2230 2211 2234 2260 2259 2128 2075 2050 2031 2012 1922 1864 1794 1783 1771 1790 1858 1848 1814 1809 1801 1776 1775 1628 1589 1549 1525 1518 1485 1505 1531 1535 1533 1543 1549 1571 1587 1575 1532 1490 1494 1503 1507 1491 1481 1423 1373 1338 1304 1285 1351 1425 1494 1577 1657 1712 1769 1855 1849 1945 1981 2032 2078 2152 2219 2307 2398 2535 2617 2564 2608 2662 2706 2811 2846 2840 2883 2749 2711 2655 2552 2423 2336 2297 2316 2276 2191 2058 1945 2034 2151 2233 2269 2346 2466 2576 2673 2708 2708
2184 2352 2378 2288 2186 2130 2232 2317 2273 2265 2273 2312 2388 2175 2023 1886 1806 1822 1946 2064 2042 1992 1982 1967 1863 1787 1755 1738 1748 1768 1894 1917 1924 1914 1853 1823 1646 1502 1425 1473 1415 1425 1425 1389 1386 1517 1693 1746 1808 1876 1962 2030 2108 2204 2241 2230 2250 2281 2247 2289 2391 2462 2416 2330 2310 2272 2242 2243 2238 2224 2171 2138 2040 2003 2031 2029 2010 1981 1877 1806 1827 1835 1832 1895 1889 1868 1835 1865 1867 1772 1695 1610 1583 1579 1524 1524 1507 1484 1496 1475 1501 1517 1536 1545 1504 1482 1469 1442 1416 1397 1409 1417 1372 1326 1300 1284 1313 1388 1511 1632 1682 1707 1788 1864 1908 1906 2010 2080 2085 2130 2282 2367 2474 2561 2553 2644 2632 2697 2777 2764 2864 3014 3001 2844 2660 2588 2521 2478 2405 2299 2299 2308 2254 2137 2027 1913 1952 2046 2191 2332 2395 2438 2475 2582 2597 2635
2328 2321 2355 2418 2414 2378 2460 2315 2205 2214 2235 2257 2257 2149 2008 1866 1827 1953 2021 2066 2098 2096 2077 2035 2000 1876 1807 1818 1817 1824 1870 1968 1969 1965 1926 1831 1620 1494 1408 1393 1387 1345 1352 1352 1393 1470 1584 1748 1839 1875 1905 1947 2028 2130 2240 2306 2363 2401 2355 2385 2468 2499 2464 2392 2366 2293 2269 2266 2230 2231 2160 2123 2092 2054 1977 1915 1891 1878 1830 1826 1856 1881 1950 1963 1978 1962 1931 1913 1852 1766 1661 1631 1644 1627 1579 1545 1557 1537 1519 1505 1463 1484 1506 1499 1486 1470 1450 1443 1408 1380 1362 1340 1322 1286 1291 1300 1313 1397 1508 1685 1788 1849 1866 1952 2008 1998 2035 2168 2189 2200 2303 2449 2599 2638 2655 2769 2745 2706 2870 2995 2916 2888 2853 2699 2595 2500 2420 2337 2303 2233 2174 2188 2155 2118 2019 1882 1901 1977 2163 2309 2416 2471 2439 2442 2477 2571
2358 2382 2374 2328 2355 2428 2362 2263 2192 2249 2263 2254 2235 2138 2034 1878 1916 2021 2114 2139 2121 2076 2112 2171 2115 2074 1997 1941 2009 1948 1963 1949 1936 1952 1911 1773 1590 1450 1418 1436 1468 1393 1317 1353 1434 1504 1633 1808 1878 1938 1969 1985 2017 2068 2191 2312 2409 2408 2333 2350 2403 2346 2383 2456 2415 2359 2301 2262 2241 2232 2220 2242 2197 2160 2098 2036 2001 1963 1875 1855 1899 1943 2004 2103 2104 2053 2036 1934 1858 1797 1717 1667 1702 1662 1611 1592 1583 1568 1551 1541 1515 1476 1476 1455 1455 1419 1395 1372 1357 1346 1322 1301 1311 1270 1278 1300 1326 1412 1554 1627 1728 1812 1875 1935 2003 2110 2128 2224 2289 2315 2370 2454 2603 2680 2717 2819 2767 2713 2830 2983 2943 2876 2777 2644 2528 2453 2289 2234 2203 2146 2058 2097 2107 2062 1956 1828 1870 1961 2063 2278 2390 2455 2489 2440 2434 2481
2355 2377 2424 2291 2253 2288 2277 2180 2151 2226 2366 2307 2194 2132 1979 1940 1976 2020 2177 2244 2204 2172 2173 2162 2113 2025 1987 1997 1947 1931 1903 1836 1828 1765 1648 1564 1462 1412 1426 1481 1473 1404 1309 1364 1449 1542 1665 1879 1924 1984 2058 2097 2104 2121 2178 2266 2403 2303 2243 2266 2311 2266 2311 2433 2451 2415 2312 2280 2256 2252 2287 2376 2264 2135 2121 2119 2125 2077 2018 1964 1953 1952 1988 2090 2166 2153 2079 1993 1896 1777 1708 1727 1725 1716 1689 1655 1608 1583 1586 1568 1551 1562 1512 1492 1484 1476 1447 1449 1415 1368 1347 1313 1293 1285 1270 1252 1272 1330 1420 1532 1599 1707 1747 1825 1900 2035 2114 2097 2178 2282 2406 2511 2572 2552 2622 2714 2785 2816 2842 2858 2944 2886 2767 2606 2493 2423 2330 2187 2194 2090 2012 1969 1951 1924 1836 1793 1869 1897 2008 2186 2285 2407 2459 2462 2501 2519
2215 2217 2305 2322 2269 2248 2196 2128 2148 2258 2413 2418 2334 2175 2009 1996 2012 2074 2235 2267 2278 2261 2266 2191 2136 2016 1979 1928 1916 1894 1826 1733 1694 1628 1567 1519 1443 1438 1495 1422 1368 1313 1325 1440 1490 1638 1752 1827 1823 1901 2012 2125 2177 2242 2266 2329 2350 2257 2188 2187 2239 2176 2233 2390 2449 2435 2368 2323 2326 2357 2388 2365 2256 2179 2186 2203 2212 2139 2127 2097 2007 2006 2008 2052 2112 2146 2086 2018 1875 1803 1734 1775 1794 1752 1708 1673 1662 1600 1601 1585 1578 1615 1563 1578 1541 1501 1478 1470 1452 1411 1371 1354 1318 1276 1257 1274 1250 1259 1316 1413 1523 1619 1640 1714 1835 1960 1969 2003 2108 2221 2345 2434 2461 2487 2533 2594 2697 2858 2771 2740 2783 2786 2741 2613 2509 2407 2306 2138 2135 2034 1966 1922 1817 1722 1692 1715 1772 1847 1963 2084 2246 2362 2444 2496 2599 2604
2095 2132 2165 2226 2348 2252 2130 2111 2197 2342 2503 2510 2353 2237 2109 2097 2096 2120 2276 2370 2263 2216 2189 2158 2074 2037 2026 1971 1904 1919 1722 1600 1531 1506 1454 1444 1467 1601 1578 1408 1306 1288 1376 1422 1480 1565 1612 1680 1723 1759 1972 2026 2066 2161 2238 2229 2246 2200 2139 2113 2140 2131 2216 2325 2321 2341 2351 2412 2410 2437 2517 2424 2361 2318 2288 2373 2310 2230 2287 2169 2043 2056 2056 2072 2088 2035 1986 1915 1814 1782 1772 1813 1822 1763 1722 1715 1722 1660 1644 1610 1608 1615 1606 1626 1560 1492 1477 1461 1447 1434 1407 1340 1329 1271 1267 1242 1234 1254 1286 1343 1433 1503 1562 1663 1773 1828 1853 1957 2093 2155 2280 2321 2364 2421 2489 2576 2722 2821 2735 2681 2687 2662 2678 2646 2539 2427 2196 2047 1974 1918 1873 1841 1744 1641 1640 1658 1740 1839 1955 2070 2196 2302 2391 2558 2526 2540
2021 2073 2141 2235 2301 2122 2050 2093 2229 2386 2467 2465 2381 2370 2233 2173 2170 2187 2370 2300 2153 2095 2088 2103 1979 1908 1967 1981 1942 1872 1687 1646 1529 1500 1504 1542 1629 1665 1537 1392 1278 1296 1351 1358 1397 1454 1524 1598 1627 1684 1857 1873 2004 2099 2154 2136 2139 2138 2081 2017 2028 2101 2185 2217 2224 2228 2252 2328 2372 2390 2464 2487 2448 2367 2349 2448 2408 2331 2304 2168 2090 2163 2171 2108 2081 2017 1926 1843 1802 1782 1787 1819 1857 1837 1784 1764 1717 1685 1664 1648 1646 1674 1697 1674 1588 1520 1512 1491 1474 1455 1407 1359 1333 1295 1253 1255 1237 1252 1256 1351 1421 1510 1586 1659 1681 1697 1810 1907 2004 2074 2155 2232 2348 2359 2492 2609 2705 2776 2786 2680 2654 2619 2592 2524 2466 2324 2149 2038 1972 1911 1877 1836 1672 1638 1643 1690 1759 1895 1989 2076 2200 2331 2460 2483 2442 2494
1888 1999 2098 2151 2144 2056 2023 2058 2167 2303 2407 2370 2281 2397 2423 2374 2236 2288 2421 2408 2199 2112 2052 2007 1918 1851 1854 1821 1804 1807 1807 1756 1731 1706 1644 1752 1757 1647 1563 1394 1281 1302 1332 1341 1336 1349 1371 1431 1510 1656 1730 1803 1895 1991 1972 1982 2014 2048 2014 1970 1982 2031 2089 2125 2140 2183 2162 2217 2220 2251 2340 2372 2355 2301 2290 2307 2374 2396 2268 2165 2176 2231 2196 2110 2083 1970 1869 1838 1806 1792 1804 1844 1877 1856 1809 1782 1722 1711 1721 1698 1692 1722 1742 1679 1599 1562 1550 1528 1532 1547 1475 1414 1387 1347 1317 1265 1252 1263 1263 1244 1307 1449 1541 1542 1568 1699 1790 1828 1905 1956 2019 2093 2225 2311 2391 2523 2585 2642 2759 2731 2676 2601 2543 2418 2352 2263 2148 2052 2052 2057 1970 1835 1647 1630 1665 1707 1791 1896 1991 2117 2215 2372 2403 2415 2462 2463
1836 1893 1955 2037 2017 2011 1970 1990 2116 2183 2220 2233 2264 2446 2555 2488 2384 2509 2555 2504 2262 2150 2105 2080 1973 1847 1805 1751 1761 1751 1761 1787 1851 1852 1876 1856 1669 1588 1458 1390 1297 1267 1327 1433 1447 1445 1452 1441 1463 1594 1662 1730 1785 1846 1867 1872 1887 1883 1914 1903 1894 1927 1972 2010 2021 2049 2072 2091 2126 2156 2242 2260 2269 2239 2157 2193 2283 2371 2320 2233 2254 2182 2135 2090 2008 1922 1889 1859 1834 1824 1850 1910 1871 1837 1832 1820 1791 1761 1763 1724 1743 1783 1759 1714 1638 1603 1591 1584 1592 1574 1517 1482 1495 1451 1372 1329 1315 1324 1291 1237 1242 1339 1425 1471 1593 1718 1837 1909 1939 1971 2016 2071 2210 2258 2323 2415 2514 2624 2743 2698 2598 2515 2540 2425 2333 2310 2199 2104 2101 2089 2046 1865 1683 1662 1700 1768 1855 1940 1972 2106 2187 2248 2321 2434 2476 2470
1824 1903 1959 1955 1894 1823 1808 1849 1996 2044 2079 2120 2168 2329 2400 2435 2440 2465 2565 2436 2305 2252 2228 2138 2068 1921 1815 1764 1755 1737 1744 1796 1887 2016 1905 1736 1594 1480 1406 1330 1271 1238 1312 1518 1617 1664 1711 1656 1575 1522 1519 1553 1611 1621 1677 1746 1742 1757 1774 1780 1787 1812 1830 1836 1852 1880 1948 2026 2049 2094 2133 2148 2163 2134 2102 2107 2177 2271 2325 2247 2156 2075 2052 1969 1950 1924 1908 1899 1897 1891 1969 2001 1971 1933 1914 1860 1858 1834 1819 1760 1797 1793 1770 1717 1660 1628 1631 1676 1661 1618 1617 1605 1584 1520 1448 1390 1385 1348 1312 1247 1245 1272 1334 1507 1632 1797 1862 1867 1907 1988 2079 2150 2251 2293 2317 2343 2435 2534 2634 2619 2505 2456 2519 2549 2464 2366 2246 2152 2140 2100 1955 1774 1633 1665 1759 1866 1949 2032 2004 2058 2121 2198 2267 2405 2430 2470
1841 1923 2005 2002 1912 1802 1798 1785 1834 1872 1982 2043 2121 2256 2334 2356 2325 2361 2397 2315 2374 2434 2385 2327 2253 2075 1954 1815 1771 1766 1791 1892 2027 2057 1885 1800 1685 1543 1466 1383 1253 1244 1373 1481 1587 1697 1833 1874 1781 1733 1609 1557 1531 1533 1568 1597 1643 1658 1678 1710 1721 1732 1753 1770 1783 1814 1851 1902 1941 2000 2046 2052 2049 2058 2055 2065 2122 2196 2251 2148 2081 2028 2010 1967 1955 1923 1918 1919 1914 1951 2034 2056 2014 1982 1999 1913 1876 1859 1852 1838 1843 1812 1761 1701 1683 1682 1702 1717 1770 1718 1742 1766 1682 1582 1508 1450 1427 1375 1356 1269 1229 1241 1281 1387 1526 1676 1757 1772 1828 1898 2000 2080 2176 2262 2359 2421 2474 2574 2636 2520 2392 2351 2368 2474 2560 2455 2335 2277 2188 2080 1882 1714 1629 1718 1807 1902 2028 2110 2113 2056 2081 2194 2272 2362 2380 2373
1905 1958 2048 2014 1930 1824 1807 1773 1823 1833 1885 1960 2051 2176 2292 2322 2311 2355 2240 2236 2359 2411 2483 2543 2410 2175 2025 1913 1869 1848 1920 1996 2005 1948 1907 1746 1588 1494 1450 1374 1279 1265 1405 1449 1525 1637 1784 1975 1873 1847 1805 1724 1638 1584 1586 1583 1612 1636 1661 1688 1705 1718 1743 1787 1807 1831 1833 1866 1888 1917 1947 1965 2007 2032 2033 2050 2101 2172 2181 2121 2074 2004 1981 1981 1984 1976 1953 1971 1959 2046 2107 2105 2085 2084 1986 1947 1891 1884 1864 1857 1872 1799 1742 1716 1722 1737 1783 1795 1834 1815 1856 1879 1732 1578 1539 1480 1467 1425 1399 1315 1262 1247 1237 1301 1400 1535 1662 1721 1793 1858 1940 2021 2111 2222 2333 2430 2461 2486 2571 2492 2325 2287 2279 2349 2440 2338 2268 2223 2073 1975 1726 1638 1639 1751 1861 1968 2090 2200 2206 2117 2110 2174 2267 2264 2373 2364
1864 1973 2054 1960 1875 1790 1750 1665 1732 1803 1901 1952 2095 2179 2255 2256 2269 2223 2152 2211 2253 2306 2360 2453 2488 2252 2104 2022 2025 2011 1994 2080 1894 1826 1772 1625 1475 1394 1308 1238 1212 1251 1328 1441 1536 1664 1813 1999 2065 1996 2004 1958 1877 1858 1743 1688 1684 1691 1700 1762 1784 1797 1825 1864 1879 1896 1906 1937 1902 1902 1909 1938 1976 1989 2013 2058 2131 2194 2214 2152 2103 2086 2065 2041 2055 2032 2034 2067 2084 2167 2197 2188 2077 2033 1995 1955 1898 1870 1891 1926 1915 1823 1770 1773 1783 1805 1839 1803 1771 1777 1849 1891 1765 1680 1591 1524 1515 1485 1430 1386 1304 1242 1249 1261 1368 1565 1692 1741 1808 1855 1934 2010 2085 2171 2257 2268 2315 2380 2472 2444 2374 2218 2170 2271 2319 2183 2113 2060 1972 1838 1611 1573 1699 1811 1910 2059 2153 2187 2297 2219 2162 2189 2281 2272 2344 2375
1957 2028 2093 1974 1847 1781 1698 1643 1691 1760 1876 1941 2050 2081 2205 2219 2234 2081 2068 2153 2198 2245 2291 2398 2478 2322 2181 2228 2176 2086 2105 1997 1855 1751 1657 1543 1469 1370 1291 1210 1199 1247 1340 1450 1551 1701 1882 2077 2172 2184 2141 2057 1966 1940 1817 1750 1756 1767 1766 1807 1858 1883 1890 1919 1919 1922 1957 1983 1975 1938 1930 1931 1949 1991 2016 2057 2134 2203 2255 2225 2204 2150 2135 2123 2114 2110 2150 2181 2227 2247 2195 2166 2111 2099 2002 1928 1890 1848 1857 1894 1910 1867 1812 1814 1820 1815 1777 1724 1704 1759 1725 1765 1805 1761 1688 1606 1593 1515 1473 1446 1354 1259 1283 1285 1320 1444 1658 1741 1820 1887 1964 2029 2121 2176 2139 2159 2207 2288 2379 2297 2269 2166 2094 2196 2164 2081 1955 1910 1857 1724 1569 1596 1738 1862 2024 2143 2237 2261 2356 2343 2236 2197 2233 2328 2363 2373
1993 2045 2081 1985 1866 1784 1702 1629 1621 1692 1791 1872 1922 2042 2128 2091 2080 1944 2000 2098 2149 2226 2327 2363 2321 2322 2230 2272 2287 2301 2193 1992 1873 1787 1681 1595 1428 1324 1264 1215 1198 1255 1322 1408 1508 1633 1798 1950 2123 2262 2298 2221 2128 2003 1860 1807 1822 1821 1809 1837 1903 1961 1950 1973 1959 1962 2002 2018 2021 2016 1980 1971 1988 1992 2028 2082 2125 2224 2272 2202 2147 2134 2128 2094 2068 2108 2124 2164 2220 2203 2137 2152 2192 2092 1936 1878 1891 1850 1813 1838 1824 1804 1795 1801 1783 1812 1761 1672 1591 1595 1609 1631 1695 1746 1759 1737 1645 1570 1513 1418 1302 1218 1313 1370 1310 1399 1599 1689 1785 1852 1914 1995 2101 2141 2043 2045 2099 2189 2280 2177 2088 2004 1992 2108 2034 1991 1960 1799 1688 1640 1524 1635 1834 1951 2115 2236 2350 2386 2385 2409 2331 2277 2306 2397 2444 2409
1904 1940 2030 2029 1936 1821 1742 1644 1612 1633 1714 1806 1866 1940 1957 1971 1997 1890 1907 2030 2101 2247 2350 2281 2230 2252 2158 2200 2208 2297 2251 2084 1959 1892 1786 1671 1480 1359 1273 1201 1194 1257 1319 1455 1561 1701 1829 1951 2082 2200 2368 2346 2231 2092 1976 1936 1947 1901 1833 1848 1909 1986 2044 2039 2005 2022 2013 2036 2044 2025 2036 2015 2007 2043 2056 2118 2167 2271 2225 2150 2096 2049 1998 1980 1957 2001 2039 2088 2147 2121 2082 2073 2081 2030 1894 1846 1872 1845 1823 1777 1777 1798 1751 1751 1742 1728 1636 1584 1589 1589 1571 1564 1606 1624 1694 1752 1641 1577 1513 1446 1340 1217 1272 1351 1328 1352 1452 1629 1777 1823 1886 1959 2023 2079 1970 1957 2010 2134 2177 2121 2018 1889 1850 1989 1952 1853 1851 1734 1629 1547 1574 1697 1898 2027 2161 2336 2440 2491 2520 2473 2352 2313 2357 2384 2469 2469
1797 1858 1956 2041 1933 1858 1786 1703 1613 1614 1672 1760 1768 1788 1790 1777 1830 1874 1972 2186 2261 2299 2234 2147 2123 2149 2097 2071 2177 2176 2237 2126 2010 1951 1811 1712 1522 1370 1281 1203 1197 1269 1317 1409 1497 1625 1740 1887 1993 2128 2266 2407 2286 2205 2134 2142 2164 2044 1898 1871 1907 2000 2096 2135 2061 2019 2040 2067 2056 2063 2060 2059 2035 2055 2099 2160 2261 2267 2185 2116 2056 2007 1960 1922 1889 1878 1921 1959 1994 1951 1950 1956 1994 2011 1844 1812 1849 1837 1800 1730 1711 1718 1740 1639 1615 1612 1611 1644 1719 1712 1651 1614 1568 1553 1623 1687 1664 1628 1590 1527 1409 1243 1257 1247 1276 1312 1400 1525 1631 1718 1846 1889 1912 1977 1969 1862 1907 2013 2042 2019 1926 1776 1771 1932 1799 1716 1611 1582 1540 1458 1554 1754 1950 2097 2232 2376 2378 2406 2451 2446 2424 2392 2388 2401 2471 2532
1832 1900 1975 2035 1965 1901 1838 1707 1628 1592 1640 1708 1672 1700 1716 1757 1813 1887 2017 2197 2190 2178 2157 2055 2019 2054 2069 2018 2130 2119 2167 2076 1898 1826 1724 1655 1552 1391 1265 1185 1194 1285 1360 1471 1557 1702 1833 1987 2097 2179 2291 2409 2352 2210 2172 2200 2258 2135 2051 1930 1957 2063 2168 2229 2105 2042 2049 2066 2112 2089 2095 2095 2064 2071 2123 2170 2271 2180 2098 2067 2044 2016 1990 1984 1921 1827 1849 1857 1883 1856 1845 1863 1921 1946 1850 1831 1797 1821 1771 1704 1676 1646 1647 1608 1617 1627 1644 1686 1756 1758 1701 1646 1646 1534 1437 1505 1626 1665 1638 1569 1470 1266 1257 1252 1279 1296 1379 1446 1515 1617 1756 1786 1840 1910 1926 1835 1816 1906 1948 1966 1818 1708 1711 1871 1761 1639 1534 1502 1446 1487 1647 1793 2021 2146 2267 2292 2283 2296 2350 2383 2417 2506 2486 2479 2588 2616
1924 2020 2078 2106 2027 1958 1871 1736 1663 1600 1608 1628 1593 1651 1698 1749 1828 1960 2064 2120 2071 2024 2021 1979 1956 1967 1990 1995 2063 2089 2104 2103 1930 1735 1603 1528 1489 1407 1255 1188 1212 1312 1413 1562 1689 1855 1960 2115 2249 2327 2399 2428 2331 2240 2157 2158 2222 2264 2246 2217 2189 2227 2374 2379 2194 2103 2076 2106 2143 2117 2116 2106 2105 2082 2114 2165 2206 2132 2092 2072 2047 2029 1996 1951 1926 1794 1785 1799 1787 1775 1743 1727 1760 1792 1836 1834 1760 1771 1714 1684 1630 1607 1620 1606 1615 1631 1693 1715 1805 1786 1665 1568 1509 1458 1404 1384 1407 1477 1427 1408 1369 1223 1233 1319 1366 1383 1379 1438 1475 1527 1610 1679 1768 1802 1805 1803 1763 1825 1902 1955 1878 1683 1645 1742 1587 1536 1433 1392 1509 1690 1847 1835 1961 2046 2170 2245 2231 2272 2278 2331 2357 2427 2452 2521 2602 2592
1983 2127 2110 2033 2007 1980 1887 1772 1705 1613 1591 1589 1602 1689 1716 1782 1878 1952 2052 2043 2013 2003 1978 1931 1915 1931 1910 1927 1992 2009 2067 2115 1951 1773 1639 1509 1381 1258 1202 1190 1270 1352 1466 1618 1787 1865 1988 2095 2188 2278 2417 2416 2309 2254 2157 2151 2257 2346 2273 2282 2325 2402 2499 2522 2338 2180 2161 2134 2148 2147 2113 2118 2132 2122 2152 2196 2194 2141 2110 2075 2031 1977 1932 1952 1849 1756 1734 1730 1731 1730 1696 1682 1688 1694 1772 1767 1763 1695 1672 1640 1619 1618 1609 1622 1640 1671 1706 1763 1812 1717 1625 1587 1531 1456 1410 1353 1285 1304 1281 1270 1249 1220 1181 1264 1311 1437 1405 1447 1510 1555 1641 1724 1747 1696 1674 1759 1771 1738 1788 1850 1904 1681 1599 1607 1543 1410 1353 1474 1570 1649 1799 1858 1963 2053 2179 2250 2293 2324 2331 2382 2392 2423 2429 2436 2499 2561
2142 2124 2048 1923 1884 1867 1874 1822 1696 1597 1565 1557 1648 1730 1816 1846 1908 1943 2029 2011 1958 1922 1900 1880 1872 1843 1817 1849 1904 1956 1989 2054 1953 1830 1680 1531 1401 1310 1171 1203 1313 1369 1471 1575 1696 1850 1924 2086 2239 2381 2486 2536 2407 2311 2274 2290 2377 2477 2366 2341 2399 2458 2532 2607 2512 2375 2282 2220 2186 2181 2145 2134 2149 2134 2183 2231 2221 2182 2161 2047 1999 1927 1898 1871 1793 1760 1743 1697 1692 1700 1705 1683 1648 1651 1682 1714 1710 1661 1629 1640 1659 1660 1670 1674 1689 1702 1713 1768 1778 1711 1643 1592 1546 1489 1437 1400 1303 1252 1239 1197 1202 1172 1158 1165 1236 1349 1488 1498 1547 1565 1620 1714 1696 1623 1580 1606 1707 1648 1668 1728 1716 1652 1543 1435 1377 1332 1456 1599 1702 1839 1898 1963 2073 2167 2283 2384 2454 2423 2418 2512 2426 2365 2377 2368 2374 2419
2043 2015 2017 1889 1760 1741 1758 1686 1706 1623 1553 1554 1641 1756 1887 1956 2022 2075 2101 1988 1932 1863 1879 1879 1888 1833 1742 1768 1823 1868 1918 1989 1921 1720 1536 1431 1319 1221 1188 1296 1464 1490 1573 1672 1756 1876 1996 2139 2268 2356 2444 2477 2509 2468 2451 2460 2526 2468 2442 2503 2582 2617 2700 2733 2740 2710 2565 2506 2405 2333 2231 2227 2199 2193 2216 2285 2204 2136 2065 2012 1955 1913 1874 1840 1775 1778 1791 1752 1712 1700 1695 1667 1661 1648 1625 1641 1632 1633 1639 1629 1683 1726 1766 1733 1722 1712 1731 1759 1755 1734 1688 1645 1564 1530 1488 1457 1379 1321 1295 1259 1235 1169 1156 1158 1235 1296 1437 1482 1483 1489 1534 1603 1719 1642 1546 1533 1526 1564 1535 1660 1582 1482 1423 1327 1296 1390 1595 1718 1871 1989 2050 2106 2228 2273 2382 2506 2499 2456 2408 2344 2291 2230 2218 2259 2311 2398
1979 1915 1914 1828 1734 1639 1640 1606 1611 1590 1562 1551 1688 1807 1912 2013 2108 2159 2156 2038 1931 1875 1817 1853 1861 1742 1705 1734 1798 1810 1846 1893 1878 1735 1467 1337 1245 1168 1277 1433 1540 1619 1665 1759 1842 1996 2109 2176 2226 2282 2320 2367 2396 2491 2591 2597 2595 2580 2586 2669 2612 2507 2606 2580 2633 2674 2516 2482 2498 2497 2371 2346 2366 2265 2179 2164 2142 2031 1999 1969 1948 1898 1833 1806 1787 1788 1820 1774 1769 1753 1752 1730 1670 1709 1685 1640 1636 1622 1641 1653 1680 1753 1797 1783 1758 1751 1764 1813 1805 1773 1742 1674 1626 1594 1529 1464 1369 1324 1304 1287 1221 1194 1152 1139 1239 1280 1310 1409 1455 1430 1496 1585 1693 1629 1538 1453 1416 1452 1431 1518 1497 1360 1301 1279 1393 1487 1658 1808 2008 2074 2162 2197 2288 2339 2363 2362 2350 2328 2272 2214 2187 2205 2233 2284 2322 2403
1960 1873 1853 1829 1745 1659 1553 1490 1468 1493 1512 1564 1676 1760 1904 2023 2120 2228 2211 2098 1971 1838 1769 1764 1792 1689 1698 1736 1774 1766 1784 1842 1821 1608 1441 1321 1196 1232 1333 1477 1606 1757 1833 1897 1981 2015 2010 2124 2093 2186 2177 2193 2307 2415 2482 2487 2475 2549 2620 2503 2412 2393 2412 2410 2443 2503 2422 2393 2432 2487 2556 2544 2457 2213 2102 2083 2077 2020 1973 1946 1908 1846 1828 1830 1802 1808 1845 1841 1819 1817 1796 1787 1749 1744 1710 1676 1661 1645 1632 1683 1723 1771 1834 1792 1790 1797 1822 1907 1885 1800 1761 1722 1655 1597 1542 1485 1399 1321 1321 1304 1262 1213 1192 1159 1125 1201 1214 1243 1317 1364 1447 1507 1538 1518 1482 1391 1354 1340 1313 1308 1335 1249 1329 1379 1445 1603 1706 1878 1948 1937 1996 2033 2071 2151 2218 2261 2216 2239 2148 2101 2134 2242 2321 2312 2364 2395
1926 1837 1785 1850 1832 1713 1609 1450 1423 1516 1589 1657 1730 1777 1870 1956 2086 2187 2221 2117 2004 1878 1786 1712 1702 1673 1699 1733 1753 1742 1768 1799 1790 1569 1383 1263 1167 1200 1321 1462 1606 1769 1798 1876 1830 1850 1905 1928 2005 2066 2023 2083 2228 2218 2320 2286 2351 2402 2417 2324 2331 2294 2310 2336 2361 2363 2376 2346 2403 2464 2567 2664 2426 2207 2095 2073 2011 1989 1948 1897 1868 1844 1832 1840 1843 1854 1871 1900 1897 1862 1881 1854 1811 1826 1775 1706 1673 1624 1628 1703 1675 1716 1765 1821 1813 1826 1872 1938 1893 1848 1805 1752 1702 1638 1566 1486 1438 1395 1358 1348 1310 1236 1216 1171 1108 1129 1123 1146 1248 1331 1366 1442 1444 1420 1388 1312 1294 1287 1249 1241 1219 1261 1385 1455 1499 1585 1726 1774 1799 1813 1888 1888 1967 1996 2035 2148 2098 2126 2058 2065 2116 2248 2384 2444 2391 2428
1896 1822 1723 1761 1758 1687 1553 1436 1424 1564 1673 1755 1826 1876 1947 2036 2119 2185 2258 2140 2036 1941 1862 1756 1691 1629 1642 1725 1749 1749 1769 1789 1736 1552 1377 1222 1136 1212 1342 1501 1661 1726 1622 1663 1701 1710 1781 1799 1884 1883 1920 1985 2034 2082 2149 2145 2189 2220 2239 2232 2222 2192 2206 2273 2326 2351 2337 2365 2455 2566 2560 2528 2359 2212 2113 2015 1956 1923 1896 1893 1886 1864 1867 1858 1888 1893 1933 2047 1986 1951 1934 1862 1819 1785 1744 1722 1681 1657 1633 1651 1650 1690 1739 1791 1805 1829 1849 1823 1891 1843 1784 1762 1673 1632 1571 1536 1494 1447 1421 1372 1334 1282 1265 1242 1163 1087 1109 1130 1211 1244 1274 1350 1340 1313 1286 1234 1242 1247 1215 1209 1219 1206 1294 1445 1526 1586 1610 1644 1666 1699 1748 1748 1831 1815 1910 2033 1990 2049 1988 2079 2183 2310 2392 2458 2506 2527
1889 1739 1653 1633 1641 1606 1476 1390 1404 1499 1649 1728 1784 1866 1975 2045 2114 2171 2246 2188 2136 2033 1917 1814 1698 1610 1564 1649 1683 1719 1735 1761 1725 1522 1346 1195 1114 1188 1324 1523 1577 1536 1487 1536 1574 1587 1645 1717 1758 1740 1833 1873 1949 1966 2015 2042 2079 2093 2124 2168 2180 2176 2192 2212 2245 2314 2316 2386 2546 2658 2498 2444 2270 2190 2074 2000 1966 1928 1911 1912 1885 1883 1872 1862 1904 1950 2092 2082 2019 2022 1934 1902 1868 1801 1753 1708 1673 1648 1647 1647 1673 1661 1673 1720 1766 1780 1784 1768 1823 1782 1733 1702 1659 1627 1621 1551 1508 1449 1410 1377 1339 1301 1281 1235 1205 1103 1100 1134 1185 1221 1256 1316 1262 1290 1255 1219 1227 1199 1186 1196 1208 1232 1290 1403 1479 1527 1532 1546 1564 1592 1633 1652 1714 1746 1854 1905 1933 1998 1916 2067 2190 2217 2268 2378 2428 2493
1841 1786 1692 1569 1529 1561 1439 1370 1413 1497 1528 1595 1683 1796 1858 1927 2002 2053 2163 2205 2125 1987 1879 1804 1747 1637 1559 1537 1554 1590 1643 1673 1710 1558 1326 1169 1094 1141 1292 1398 1380 1376 1360 1415 1442 1479 1499 1586 1608 1622 1773 1817 1850 1879 1931 1963 1995 2026 2064 2107 2116 2120 2150 2161 2178 2238 2310 2395 2555 2629 2484 2447 2212 2105 2041 2002 1976 1950 1921 1925 1898 1911 1950 1963 2039 2087 2014 1969 1974 1978 1928 1885 1841 1784 1745 1714 1712 1720 1672 1687 1687 1681 1661 1667 1676 1734 1749 1737 1776 1743 1708 1683 1648 1625 1610 1554 1493 1457 1403 1403 1405 1351 1315 1255 1233 1097 1084 1116 1156 1197 1235 1195 1182 1194 1177 1174 1172 1214 1264 1250 1233 1291 1340 1413 1420 1430 1484 1476 1485 1495 1519 1539 1588 1681 1772 1728 1809 1898 1862 1950 2017 2069 2132 2204 2349 2414
1752 1688 1695 1610 1532 1480 1392 1370 1407 1510 1528 1545 1593 1660 1739 1814 1894 1986 2117 2177 2130 2031 1955 1878 1800 1705 1606 1503 1492 1514 1527 1574 1627 1549 1337 1186 1079 1130 1235 1267 1276 1296 1342 1454 1498 1561 1603 1670 1725 1775 1828 1813 1849 1851 1901 1950 1989 2004 2041 2060 2083 2125 2154 2160 2155 2189 2265 2346 2454 2522 2500 2492 2243 2124 2045 2029 1987 1958 1928 1947 1938 2008 2071 2125 2081 2030 1985 1969 1922 1902 1885 1847 1823 1809 1793 1780 1752 1721 1689 1676 1675 1688 1683 1631 1657 1723 1753 1731 1743 1736 1705 1684 1624 1581 1557 1531 1472 1440 1416 1453 1408 1346 1281 1266 1232 1103 1057 1088 1113 1160 1178 1163 1196 1189 1172 1145 1157 1169 1222 1284 1316 1352 1407 1386 1361 1373 1388 1408 1418 1424 1450 1459 1523 1549 1623 1609 1634 1706 1765 1803 1839 1934 1984 2071 2185 2269
1628 1574 1575 1582 1569 1414 1373 1342 1429 1494 1574 1597 1647 1677 1720 1792 1877 1987 2127 2094 2026 2009 2030 1933 1825 1729 1630 1528 1483 1484 1485 1499 1513 1500 1330 1192 1077 1125 1191 1261 1302 1398 1488 1580 1657 1725 1708 1806 1822 1879 1922 1937 1945 1945 1981 2007 2009 2021 2060 2072 2078 2116 2152 2164 2151 2135 2186 2277 2372 2461 2540 2491 2410 2305 2139 2072 2027 2010 2015 2016 2051 2088 2044 2000 2001 1995 1986 1966 1920 1903 1880 1858 1866 1857 1827 1834 1799 1751 1682 1685 1677 1657 1626 1603 1635 1681 1645 1679 1687 1697 1701 1649 1597 1541 1506 1498 1476 1427 1460 1423 1366 1356 1289 1273 1206 1109 1048 1063 1083 1112 1138 1220 1198 1165 1163 1168 1190 1216 1208 1243 1313 1387 1349 1344 1394 1429 1436 1417 1432 1443 1488 1487 1459 1461 1517 1577 1612 1675 1784 1726 1753 1808 1862 1936 2002 2048
1629 1529 1476 1450 1489 1392 1347 1367 1435 1525 1635 1684 1755 1786 1843 1897 1969 2039 2144 2065 1967 1922 1891 1875 1819 1702 1659 1586 1513 1471 1448 1384 1375 1335 1300 1201 1074 1100 1243 1355 1416 1516 1611 1729 1767 1855 1877 1949 1995 2012 2108 2208 2143 2071 2105 2128 2094 2125 2134 2141 2125 2116 2088 2110 2116 2108 2142 2222 2314 2407 2573 2521 2439 2419 2367 2276 2156 2158 2102 2046 1996 1945 1929 1933 1951 1942 1952 1997 1992 1970 1924 1924 1913 1836 1819 1797 1789 1737 1703 1661 1639 1615 1603 1587 1569 1597 1619 1634 1629 1629 1672 1659 1610 1566 1503 1456 1448 1434 1415 1364 1320 1310 1275 1250 1166 1113 1065 1061 1074 1137 1223 1151 1127 1154 1204 1261 1290 1302 1295 1282 1273 1304 1333 1408 1433 1476 1472 1456 1493 1520 1529 1564 1562 1522 1490 1588 1686 1727 1761 1809 1826 1814 1841 1879 1905 1961
1668 1582 1478 1411 1413 1327 1339 1373 1434 1530 1582 1613 1719 1795 1900 1899 1953 2037 2123 1974 1889 1863 1809 1767 1702 1624 1589 1575 1555 1524 1479 1462 1414 1326 1206 1156 1078 1115 1262 1474 1559 1597 1719 1880 1956 2034 2049 2078 2141 2217 2301 2412 2405 2395 2333 2259 2208 2293 2386 2341 2382 2195 2099 2100 2102 2117 2179 2230 2281 2369 2512 2521 2386 2367 2317 2221 2167 2121 2018 1954 1937 1906 1897 1893 1899 1911 1902 1915 1920 1923 1894 1851 1829 1798 1773 1779 1749 1709 1694 1687 1640 1622 1605 1580 1569 1538 1557 1574 1583 1585 1578 1600 1618 1564 1465 1421 1435 1397 1349 1309 1281 1261 1271 1207 1153 1104 1061 1064 1069 1123 1119 1126 1185 1228 1251 1343 1386 1367 1382 1355 1352 1343 1349 1431 1501 1510 1522 1524 1569 1622 1618 1626 1612 1567 1511 1568 1721 1813 1883 1908 1920 1911 1895 1960 1966 1911
1639 1612 1525 1397 1331 1288 1293 1349 1438 1462 1473 1549 1640 1727 1760 1787 1916 2021 2092 1982 1914 1858 1789 1696 1661 1639 1622 1598 1562 1539 1489 1486 1468 1458 1311 1167 1056 1125 1244 1378 1492 1645 1784 1920 2058 2156 2189 2243 2333 2406 2477 2517 2583 2564 2535 2459 2352 2449 2526 2587 2483 2304 2204 2131 2117 2139 2214 2235 2265 2336 2476 2543 2372 2340 2172 2061 2022 1998 1960 1926 1916 1871 1854 1853 1848 1832 1852 1840 1817 1842 1829 1808 1777 1767 1762 1733 1708 1695 1654 1629 1626 1631 1604 1586 1551 1533 1531 1567 1528 1531 1528 1516 1539 1553 1497 1434 1394 1363 1326 1286 1256 1237 1242 1186 1118 1079 1068 1064 1106 1169 1193 1211 1214 1260 1290 1429 1458 1412 1426 1426 1396 1387 1378 1398 1483 1549 1580 1595 1689 1738 1729 1696 1644 1596 1527 1565 1663 1867 1976 2018 2001 1997 1997 2045 2025 1943
1558 1512 1507 1384 1275 1268 1287 1366 1444 1438 1456 1488 1573 1619 1675 1751 1852 1958 2075 2061 1973 1904 1877 1791 1756 1735 1725 1678 1581 1524 1470 1449 1448 1465 1307 1141 1039 1163 1349 1484 1595 1724 1773 1909 2023 2144 2175 2250 2317 2360 2397 2445 2512 2579 2666 2530 2469 2500 2631 2610 2483 2328 2240 2160 2192 2268 2320 2379 2344 2401 2620 2637 2405 2300 2111 1975 1965 1939 1936 1906 1895 1877 1859 1837 1845 1829 1823 1829 1811 1804 1788 1775 1740 1740 1717 1707 1667 1662 1638 1626 1595 1593 1561 1519 1496 1495 1501 1514 1499 1479 1445 1484 1500 1491 1479 1433 1363 1332 1318 1285 1272 1224 1214 1156 1079 1046 1060 1079 1216 1260 1272 1291 1286 1301 1347 1415 1465 1490 1507 1522 1501 1458 1438 1420 1490 1577 1645 1668 1760 1820 1828 1777 1670 1622 1513 1559 1670 1837 1988 2110 2058 2090 2147 2175 2091 2005
1545 1423 1389 1317 1254 1265 1312 1422 1501 1536 1547 1511 1537 1595 1699 1795 1911 2002 2133 2115 2057 1998 1952 1910 1853 1816 1794 1724 1608 1534 1484 1417 1353 1395 1309 1104 1042 1141 1307 1469 1668 1773 1834 1927 2000 2088 2172 2241 2276 2315 2361 2414 2480 2545 2576 2592 2641 2747 2821 2660 2547 2413 2297 2231 2224 2314 2363 2381 2473 2613 2732 2593 2357 2261 2219 2023 1943 1925 1916 1901 1900 1891 1886 1865 1827 1824 1799 1804 1797 1795 1782 1772 1765 1735 1709 1695 1680 1658 1678 1641 1598 1582 1546 1544 1507 1493 1443 1432 1415 1397 1393 1426 1443 1431 1441 1404 1359 1313 1282 1278 1235 1197 1190 1150 1071 1042 1055 1076 1196 1252 1384 1370 1346 1344 1412 1463 1476 1544 1561 1585 1574 1567 1519 1451 1493 1607 1695 1741 1810 1857 1893 1851 1744 1651 1535 1556 1692 1871 2005 2123 2173 2185 2276 2304 2176 2109
1525 1446 1342 1260 1241 1275 1394 1446 1551 1603 1642 1629 1585 1615 1741 1844 1942 2041 2040 2046 2039 2041 1975 1966 1946 1903 1853 1773 1633 1532 1471 1392 1295 1241 1181 1074 1036 1138 1304 1455 1591 1740 1779 1854 1930 2027 2109 2205 2271 2304 2345 2402 2447 2498 2497 2514 2604 2717 2802 2754 2580 2477 2409 2348 2322 2349 2353 2362 2436 2564 2618 2491 2295 2222 2195 2136 2075 2020 1962 1917 1899 1907 1881 1867 1851 1827 1828 1811 1806 1770 1763 1761 1743 1717 1690 1687 1688 1684 1674 1666 1635 1606 1595 1596 1568 1563 1529 1504 1481 1414 1371 1373 1374 1373 1371 1335 1329 1295 1239 1213 1210 1191 1176 1150 1070 1045 1056 1151 1207 1254 1407 1386 1406 1436 1477 1504 1519 1591 1621 1655 1652 1652 1601 1472 1524 1686 1761 1811 1901 1903 1945 1897 1801 1700 1563 1548 1707 1883 2011 2179 2294 2283 2327 2369 2275 2208
1490 1353 1284 1236 1249 1343 1417 1489 1598 1652 1718 1735 1730 1725 1782 1855 1986 1977 1935 1940 1931 1964 2002 2018 1958 1950 1852 1774 1662 1547 1442 1407 1310 1267 1164 1062 1015 1134 1352 1556 1655 1711 1750 1805 1863 1946 2042 2121 2202 2252 2296 2369 2427 2452 2434 2501 2579 2648 2648 2684 2598 2576 2588 2535 2492 2444 2368 2440 2487 2526 2455 2322 2230 2185 2132 2132 2179 2189 2140 1993 1957 1907 1875 1867 1851 1827 1818 1807 1793 1777 1783 1745 1713 1703 1694 1694 1727 1716 1714 1708 1677 1662 1658 1619 1600 1589 1583 1540 1496 1465 1417 1383 1372 1342 1326 1300 1267 1233 1211 1186 1179 1163 1119 1125 1074 1037 1063 1105 1201 1261 1343 1454 1489 1508 1524 1588 1593 1692 1716 1726 1736 1696 1624 1511 1577 1756 1871 1914 1976 1977 2021 1956 1813 1711 1583 1547 1647 1815 1963 2094 2240 2398 2443 2422 2318 2232
1462 1323 1210 1239 1275 1339 1350 1450 1543 1626 1700 1749 1800 1840 1878 1958 2002 1892 1857 1820 1868 1926 1920 1945 1859 1856 1844 1807 1671 1598 1557 1445 1304 1298 1208 1052 1028 1155 1362 1556 1712 1756 1768 1792 1832 1895 1964 2035 2122 2169 2250 2309 2400 2412 2408 2471 2523 2597 2570 2580 2534 2494 2546 2630 2675 2553 2534 2588 2456 2421 2380 2293 2190 2156 2119 2127 2177 2219 2244 2114 2001 1948 1896 1873 1859 1846 1809 1794 1779 1776 1755 1742 1719 1715 1710 1740 1756 1758 1749 1725 1696 1685 1669 1667 1657 1631 1598 1538 1511 1493 1450 1435 1399 1374 1350 1326 1238 1167 1158 1127 1146 1124 1102 1065 1053 1043 1063 1110 1207 1279 1355 1512 1557 1570 1598 1647 1656 1765 1796 1818 1764 1710 1666 1584 1578 1775 1941 1993 2044 2058 2082 1984 1821 1712 1614 1534 1608 1762 1876 2047 2197 2267 2338 2322 2362 2285
1397 1284 1203 1233 1308 1423 1414 1409 1472 1562 1655 1724 1802 1892 1959 1998 1873 1797 1757 1738 1819 1822 1827 1883 1812 1730 1770 1832 1787 1723 1621 1482 1314 1274 1153 1040 1052 1242 1382 1559 1695 1771 1799 1813 1844 1865 1913 1986 2048 2099 2168 2238 2307 2344 2414 2435 2490 2536 2513 2458 2440 2472 2563 2664 2637 2565 2645 2608 2453 2351 2314 2261 2236 2145 2114 2133 2217 2260 2297 2262 2262 2152 1997 1946 1906 1874 1865 1821 1799 1780 1769 1728 1734 1757 1774 1769 1777 1799 1765 1761 1730 1735 1711 1708 1683 1638 1586 1544 1519 1504 1467 1450 1411 1385 1381 1333 1275 1236 1163 1108 1091 1107 1070 1055 1070 1051 1083 1131 1237 1285 1386 1490 1619 1656 1704 1702 1740 1794 1835 1831 1802 1749 1699 1616 1649 1740 1949 2083 2159 2142 2116 1947 1837 1743 1643 1552 1556 1691 1827 1989 2006 2050 2142 2229 2357 2291
1336 1212 1181 1249 1354 1430 1489 1543 1534 1567 1656 1744 1849 1937 2008 1961 1831 1752 1696 1657 1744 1698 1731 1795 1723 1627 1682 1757 1779 1662 1546 1429 1281 1203 1070 1036 1043 1268 1418 1534 1620 1726 1801 1861 1881 1914 1924 1954 2005 2059 2119 2178 2230 2263 2337 2369 2414 2412 2368 2365 2383 2433 2561 2644 2545 2507 2625 2613 2562 2406 2375 2412 2279 2151 2091 2113 2228 2378 2451 2474 2450 2282 2138 2046 1991 1926 1916 1870 1830 1793 1788 1772 1783 1810 1827 1818 1835 1817 1809 1808 1800 1790 1732 1692 1667 1601 1572 1540 1532 1528 1508 1469 1421 1399 1363 1334 1298 1242 1190 1129 1073 1056 1053 1088 1064 1085 1108 1154 1223 1261 1353 1481 1576 1650 1758 1762 1751 1776 1801 1837 1828 1873 1792 1745 1700 1777 1975 2085 2171 2209 2082 2009 1907 1797 1695 1596 1550 1606 1672 1744 1846 1974 2077 2184 2263 2261
1241 1185 1200 1306 1380 1428 1518 1592 1638 1673 1727 1797 1885 1969 1947 1951 1851 1763 1647 1575 1660 1605 1639 1697 1616 1563 1607 1676 1700 1683 1586 1457 1290 1166 1064 1001 1057 1213 1334 1459 1556 1669 1790 1837 1865 1907 1936 1965 1985 2023 2092 2141 2164 2181 2216 2246 2293 2293 2303 2318 2360 2416 2510 2492 2468 2498 2539 2595 2612 2627 2584 2447 2255 2108 2088 2098 2214 2342 2414 2489 2561 2311 2228 2183 2078 2087 2004 1927 1854 1819 1785 1809 1833 1901 1905 1945 1931 1853 1847 1793 1755 1756 1711 1678 1656 1616 1571 1551 1539 1526 1511 1471 1447 1391 1371 1327 1305 1279 1245 1184 1070 1036 1069 1055 1048 1092 1128 1182 1216 1273 1339 1383 1444 1564 1670 1761 1769 1778 1827 1878 1918 1958 1895 1829 1749 1797 1912 2045 2157 2237 2123 2086 1984 1851 1746 1653 1619 1567 1609 1659 1705 1850 1926 2010 2097 2096
1210 1175 1222 1293 1368 1440 1534 1657 1716 1746 1818 1880 1929 1892 1888 1911 1848 1733 1632 1540 1560 1484 1553 1549 1558 1480 1520 1598 1595 1614 1555 1496 1325 1205 1066 992 1089 1184 1291 1385 1474 1569 1686 1810 1826 1868 1903 1941 1973 2004 2056 2101 2109 2100 2152 2195 2221 2236 2269 2325 2378 2354 2389 2414 2363 2371 2401 2440 2496 2553 2585 2468 2296 2067 2054 2080 2136 2219 2269 2371 2478 2444 2371 2336 2337 2353 2160 2129 1957 1894 1857 1886 1900 1924 2005 2001 1938 1894 1852 1807 1766 1707 1685 1675 1639 1616 1589 1580 1579 1548 1523 1511 1477 1459 1387 1343 1298 1297 1285 1218 1089 1059 1054 1076 1050 1074 1137 1161 1227 1283 1342 1395 1465 1597 1677 1709 1746 1803 1854 1957 2017 2027 1959 1895 1851 1864 1872 1983 2100 2224 2185 2120 1993 1939 1849 1764 1717 1656 1605 1608 1619 1686 1805 1868 1906 1927
1163 1178 1269 1353 1427 1488 1568 1663 1739 1789 1844 1865 1846 1840 1855 1876 1859 1782 1694 1546 1464 1427 1454 1450 1446 1415 1441 1505 1508 1550 1483 1432 1345 1281 1108 975 1062 1183 1288 1418 1519 1590 1622 1708 1776 1825 1876 1916 1941 1972 2026 2064 2040 2062 2119 2162 2186 2229 2263 2337 2315 2200 2220 2277 2285 2347 2379 2396 2425 2475 2584 2446 2210 2020 1927 2024 2083 2169 2242 2354 2510 2632 2534 2547 2554 2521 2375 2298 2221 2072 2060 2004 2036 2026 2062 2032 2021 1969 1920 1859 1808 1741 1693 1649 1639 1613 1595 1591 1627 1592 1576 1542 1506 1453 1375 1356 1291 1278 1255 1213 1148 1063 1061 1073 1068 1151 1196 1240 1301 1336 1376 1406 1469 1580 1657 1714 1733 1787 1871 2014 2097 2083 1987 1930 1931 1889 1890 1933 2040 2134 2144 2048 2016 2013 1970 1887 1836 1764 1712 1646 1614 1665 1788 1969 2017 2019
