NCOLS 166 
NROWS 110 
XLLCORNER 695400 
YLLCORNER 4730600 
CELLSIZE 200 
NODATA_value 0 
152.000000000000000 141 142 146 167 181 187 154 119 93 77 73 62 73 104 182 204 176 180 194 213 228 230 216 207 206 177 69 5 20 78 136 198 198 88 43 129 134 117 137 173 190 188 180 170 151 158 221 240 196 129 101 139 213 222 233 229 132 115 120 162 207 173 41 1 1 93 134 131 89 77 137 198 194 215 234 229 219 197 174 180 190 113 1 23 73 91 86 79 140 200 180 182 152 177 227 181 139 118 148 184 165 159 188 193 142 116 120 140 154 139 116 114 102 120 189 231 246 203 80 145 199 224 251 172 2 1 1 1 1 1 1 1 1 1 1 22 116 246 247 236 235 245 246 249 229 127 95 72 8 1 1 1 1 39 217 247 234 232 250 196 125 139 136 168 222
159 143 166 169 176 185 207 146 64 55 43 51 66 105 139 123 171 173 189 214 232 245 251 243 209 131 84 36 1 29 116 156 132 101 47 68 196 232 244 248 246 239 218 172 132 116 130 181 223 207 152 111 142 229 239 231 150 101 130 137 196 191 48 1 22 81 171 168 123 84 72 84 183 223 236 244 236 230 207 179 151 107 12 1 31 61 93 90 81 135 216 224 178 146 174 243 213 135 128 177 203 157 129 157 179 208 175 151 156 147 116 101 103 113 158 193 197 208 190 118 197 216 196 98 1 1 1 1 40 59 15 1 1 1 1 1 50 188 246 242 233 227 232 241 253 179 82 39 1 1 1 1 1 1 104 246 244 232 226 242 202 101 149 143 122 201
163 170 189 192 180 170 194 122 57 59 32 49 123 161 142 87 120 196 177 201 216 218 231 225 152 63 57 31 1 16 67 65 31 25 12 59 162 192 212 223 211 163 124 122 136 144 170 188 158 87 84 63 79 184 172 137 95 94 110 125 115 74 61 101 130 140 176 149 88 77 64 43 114 197 202 218 209 169 122 108 98 67 13 1 26 62 100 104 116 143 155 184 210 163 156 244 228 112 133 205 217 164 137 152 137 142 216 199 168 149 147 158 158 170 188 189 186 195 190 143 179 137 34 1 1 35 81 135 146 101 43 53 33 2 3 20 102 231 235 233 231 227 223 220 232 115 78 19 1 29 24 1 1 11 159 250 244 235 221 227 205 76 177 166 107 142
116 124 111 128 134 128 133 40 4 1 1 69 217 203 117 63 74 203 198 189 194 187 161 102 56 56 72 39 1 1 40 64 60 56 54 109 156 143 137 147 114 81 112 156 196 222 226 204 102 45 34 11 2 60 81 73 100 125 130 115 66 110 196 190 163 156 170 112 64 61 43 33 82 201 161 140 106 48 44 49 45 42 33 28 28 60 86 91 110 123 113 107 146 191 154 234 185 80 164 233 226 159 139 153 131 107 134 220 180 160 175 203 216 204 198 211 231 239 213 107 71 21 1 1 77 161 184 179 158 106 53 37 17 11 35 68 131 239 227 217 211 212 218 220 248 119 56 16 1 1 1 1 20 74 192 252 239 241 232 222 214 85 213 183 90 111
40 26 7 1 1 1 1 1 1 1 1 185 247 213 99 47 48 170 227 212 220 219 141 57 48 53 53 28 1 56 200 236 232 222 205 202 187 169 163 139 105 165 220 234 240 249 250 230 115 82 51 27 15 73 98 76 74 96 137 105 78 173 246 219 165 169 167 72 33 38 35 49 67 202 193 145 93 54 52 38 39 47 35 22 21 69 116 140 171 188 188 188 198 234 211 194 119 102 216 251 227 109 121 166 153 87 77 172 186 160 167 185 205 197 176 180 187 174 127 78 58 27 4 40 149 220 207 135 140 110 31 20 53 88 107 111 133 227 221 201 188 185 191 196 225 72 1 1 1 1 1 45 163 139 164 255 236 238 245 244 230 110 232 187 90 114
32 22 40 45 41 13 1 1 3 1 74 254 246 205 75 39 42 134 238 208 156 72 8 13 45 55 49 57 127 246 248 233 227 221 210 229 200 158 149 148 197 239 245 243 233 229 240 221 155 114 72 80 73 98 98 76 57 35 33 57 104 201 249 201 87 107 143 23 1 23 20 28 43 183 249 248 241 234 220 178 133 77 33 24 39 98 158 197 224 236 242 242 239 245 235 122 84 129 240 250 150 45 139 196 153 78 65 112 183 188 171 166 170 182 173 135 116 120 127 74 1 1 16 89 197 236 169 82 168 130 50 80 121 122 99 89 115 195 221 198 185 177 167 163 167 32 1 1 1 1 78 195 220 122 100 250 226 219 232 246 218 135 245 198 97 108
91 78 85 77 64 37 23 14 1 1 221 248 253 114 13 15 9 61 222 178 107 94 110 161 205 228 218 247 247 248 248 234 231 229 205 172 209 215 168 178 221 239 239 226 207 187 186 221 171 79 74 135 149 151 121 65 30 21 41 83 152 189 167 56 1 1 24 1 1 1 1 1 39 230 252 241 230 219 197 183 210 221 185 125 112 149 181 187 186 188 207 232 238 229 224 110 120 164 241 206 42 49 190 228 149 80 66 85 150 225 184 161 165 191 213 195 177 189 194 63 1 17 78 144 223 229 115 123 214 141 80 91 123 128 89 80 99 150 224 204 182 161 153 157 160 60 1 5 29 107 164 214 212 66 52 235 209 200 201 222 218 183 248 186 43 74
148 118 95 78 54 35 33 16 12 171 251 250 198 45 34 27 1 22 227 237 254 246 237 229 247 244 218 228 233 246 251 228 229 241 222 166 168 198 223 190 175 185 198 208 209 197 191 212 164 52 83 152 174 144 108 52 21 40 83 104 102 76 27 3 1 1 1 1 1 1 1 1 107 253 250 244 230 225 208 174 178 171 132 147 172 176 183 184 184 194 208 217 197 163 164 182 154 170 217 168 68 118 237 250 156 74 76 89 120 206 203 167 150 144 139 144 161 137 82 58 58 76 158 205 243 223 99 187 226 125 57 41 130 179 107 77 73 97 207 199 185 180 184 182 204 139 12 1 86 195 192 210 170 36 27 214 208 210 216 225 251 220 234 72 1 76
126 63 47 51 36 11 1 32 185 252 245 242 65 28 23 1 1 8 189 194 219 232 241 249 254 251 240 234 230 243 250 219 228 245 218 163 169 174 183 221 168 163 198 226 230 229 227 232 187 64 94 162 171 134 95 43 35 77 102 94 83 67 12 1 1 1 1 1 1 1 1 20 219 249 246 251 238 229 217 167 148 96 47 79 173 189 179 181 190 198 194 149 92 94 127 198 190 181 201 142 95 163 253 254 151 61 88 99 99 168 221 189 160 129 96 97 111 71 37 91 127 88 172 223 244 195 119 226 227 101 49 69 200 219 119 59 46 62 170 199 191 197 204 205 217 88 1 36 173 226 205 188 94 1 1 192 209 210 221 229 252 238 138 1 1 153
41 11 33 42 27 9 20 153 253 247 241 97 1 1 1 1 1 1 113 105 70 67 106 163 218 235 253 248 232 245 248 218 232 239 194 161 192 188 155 189 221 188 198 224 238 242 237 237 205 82 104 171 187 163 112 58 54 100 119 97 83 75 15 1 1 1 1 1 1 1 34 162 255 245 245 247 244 227 187 67 34 52 87 96 133 173 154 153 154 137 96 57 76 111 138 147 144 204 220 147 126 170 243 248 122 74 105 98 90 132 207 217 203 201 205 213 214 163 123 120 138 151 192 231 244 189 167 246 238 112 82 134 211 223 125 42 34 51 121 219 200 187 179 170 161 73 58 162 204 219 204 103 1 1 3 216 219 198 199 201 212 221 34 4 68 196
1 7 56 54 20 23 108 240 249 246 195 17 1 1 1 1 1 26 107 146 116 125 148 164 181 186 182 196 227 247 252 233 231 214 171 187 197 179 153 147 233 211 191 204 226 233 227 213 192 118 141 178 194 155 98 72 62 101 131 84 74 74 7 1 1 1 1 31 133 210 205 239 247 242 243 243 244 188 50 3 69 170 163 97 77 147 177 158 142 123 102 95 103 116 119 79 49 111 208 209 154 167 221 184 90 137 115 73 70 93 173 233 228 238 248 247 251 229 218 218 193 236 212 215 232 212 201 242 225 85 87 159 188 175 63 7 26 40 85 226 210 190 173 164 177 213 162 201 206 197 163 24 1 1 30 233 226 201 197 197 200 219 33 44 157 194
15 31 43 17 1 43 197 254 250 244 103 8 2 1 2 10 19 56 120 191 187 168 173 181 175 149 125 130 157 196 216 237 240 182 171 202 186 162 162 135 199 226 197 202 219 225 220 187 145 124 130 136 111 60 54 63 74 116 127 114 113 66 1 1 1 1 18 218 249 221 191 232 244 248 242 249 203 28 8 57 183 217 159 76 46 107 202 175 169 177 173 150 121 111 93 66 82 110 123 172 219 177 149 76 128 182 79 27 58 94 161 242 227 231 248 248 245 243 214 227 252 234 219 185 236 238 194 199 137 46 66 42 1 1 1 1 1 1 46 193 207 195 187 187 198 233 190 179 166 109 37 1 1 1 55 237 231 213 203 212 224 245 59 95 204 194
92 77 34 1 10 111 246 254 252 162 39 4 1 1 1 19 55 94 133 170 192 169 158 156 148 130 116 113 120 131 135 163 208 185 180 199 185 168 161 133 153 221 187 181 185 193 175 97 69 68 46 28 25 25 38 49 83 111 108 92 84 68 1 1 1 37 180 254 245 231 177 237 245 249 247 224 113 88 111 139 227 223 125 60 28 63 188 196 192 207 230 232 212 185 143 125 129 121 114 121 169 188 53 77 186 136 26 30 93 111 148 249 234 218 237 253 249 249 236 227 218 237 225 203 249 224 66 37 25 5 1 1 1 1 1 1 1 1 44 165 196 196 201 200 200 219 173 94 65 14 1 1 1 1 92 236 231 219 209 211 217 239 93 125 205 197
78 39 10 14 99 236 254 254 199 30 1 1 1 5 72 138 157 140 134 154 199 190 156 137 113 87 86 102 115 134 168 199 218 211 196 196 191 170 153 145 126 215 208 177 165 170 128 50 64 78 61 36 36 16 1 1 11 1 2 17 23 23 5 9 82 204 248 250 247 248 167 249 246 246 247 245 207 179 139 151 236 213 76 36 28 47 154 211 194 192 211 247 252 248 246 222 181 165 170 174 171 178 47 74 134 46 22 79 125 109 143 248 246 230 233 249 235 197 223 241 178 238 241 211 206 48 1 1 1 1 1 1 1 9 91 152 142 104 108 193 223 202 196 194 194 201 134 59 52 24 16 1 1 10 140 235 229 230 225 214 202 183 72 139 206 196
1 1 1 62 232 255 253 235 62 1 1 5 36 133 211 203 177 144 114 129 190 216 188 162 148 155 178 195 202 202 216 222 183 139 179 206 193 166 160 152 99 164 220 198 192 192 145 70 75 70 56 27 19 1 1 1 1 1 1 4 1 1 45 140 230 250 253 251 241 220 146 176 152 143 179 217 230 163 124 149 230 192 62 57 55 37 103 220 203 188 182 208 248 248 218 232 252 245 217 208 200 155 8 1 38 39 74 137 163 121 126 232 237 233 229 171 56 56 109 144 173 225 187 63 2 1 1 1 38 1 1 1 1 160 244 216 196 136 114 185 250 225 193 189 191 184 85 49 47 34 46 41 33 37 173 240 228 224 222 216 179 75 12 113 227 221
1 1 33 194 255 253 253 103 1 1 31 125 208 224 221 199 162 121 80 107 162 202 197 186 192 218 236 242 251 245 227 186 98 95 121 154 185 172 169 137 73 114 212 203 200 192 148 81 74 66 52 16 1 1 1 8 24 27 40 47 31 42 113 201 246 252 252 248 240 238 178 167 201 177 177 195 216 171 151 167 222 178 80 79 54 27 76 232 212 197 187 183 196 239 234 215 239 244 240 197 148 95 8 14 90 175 200 171 158 104 94 219 233 216 186 44 26 99 129 103 114 117 4 1 1 21 58 130 132 1 1 13 149 254 252 224 198 147 124 156 198 230 188 186 196 199 85 62 89 115 122 96 38 28 169 230 223 215 180 124 74 28 22 100 164 226
1 17 161 253 253 255 189 9 1 18 119 239 241 233 222 177 116 66 52 94 124 166 192 185 198 212 223 228 232 223 190 110 87 108 103 108 156 209 179 119 64 94 216 208 200 202 182 100 86 87 66 17 1 1 30 148 181 152 144 113 68 89 154 206 228 234 244 253 251 243 216 173 190 223 205 196 214 224 170 176 212 158 80 61 37 30 56 202 208 199 197 194 186 184 211 246 247 203 243 221 176 172 111 97 203 243 224 135 83 69 93 221 240 203 134 113 224 250 240 237 225 149 11 30 149 236 181 140 72 1 4 149 248 254 253 240 205 176 133 106 92 186 187 174 181 214 164 162 193 173 111 34 1 2 144 215 204 184 107 52 45 49 60 115 134 124
5 97 247 254 254 237 59 1 1 96 235 250 245 236 210 108 44 53 89 105 98 127 194 190 199 208 202 183 155 135 89 49 59 78 106 132 158 205 201 106 71 95 221 233 226 233 223 105 81 80 70 38 21 84 221 238 207 166 146 106 87 132 186 207 213 218 218 229 240 244 249 184 124 203 212 195 196 226 192 175 211 162 78 49 45 49 54 147 211 201 209 202 179 142 110 134 186 199 238 249 236 232 191 186 233 234 174 69 53 72 121 208 215 150 119 216 255 251 255 255 252 184 95 142 238 253 170 51 3 1 80 231 253 253 247 254 231 208 105 33 24 140 214 188 187 217 208 159 164 98 7 1 1 10 161 218 190 152 120 125 133 145 166 190 179 132
26 198 253 253 254 169 15 1 40 213 254 251 245 220 164 80 79 121 128 104 80 93 191 214 201 188 156 124 95 71 39 44 84 131 172 187 192 206 230 116 81 89 202 237 228 235 206 79 68 66 56 65 133 243 252 244 210 156 113 82 78 107 184 224 236 241 228 204 228 252 253 175 78 172 238 227 212 207 235 197 198 144 49 33 53 58 50 86 220 208 200 174 140 107 91 95 93 106 197 248 248 241 233 232 233 188 77 101 109 98 125 165 177 152 183 214 234 254 254 255 249 178 139 169 230 237 86 3 14 62 152 243 250 255 249 254 242 183 31 1 1 116 229 202 191 201 174 35 29 14 1 1 1 78 226 245 222 192 194 235 252 255 248 242 228 176
61 244 246 253 240 83 11 25 116 251 251 255 237 189 142 103 131 131 93 76 57 63 182 231 208 184 144 104 75 69 87 138 197 230 237 237 238 239 246 119 74 84 173 236 211 203 168 68 49 59 95 168 239 252 251 242 172 104 78 71 46 48 185 249 249 243 244 235 223 235 248 168 96 175 246 239 240 232 228 208 110 32 1 6 45 39 17 38 203 204 181 160 139 118 117 113 97 90 127 183 238 252 238 242 239 126 48 139 167 94 63 105 175 196 225 215 219 234 246 251 250 204 163 180 225 149 1 1 54 119 158 245 254 254 254 252 234 65 1 1 1 113 220 197 191 190 112 1 13 10 1 1 52 188 248 255 252 241 244 241 245 243 211 215 236 231
159 249 242 242 182 46 10 26 186 253 250 253 227 166 150 126 138 105 57 63 56 55 169 228 188 164 168 185 208 227 229 216 211 225 246 249 236 232 239 122 97 118 157 233 210 188 186 112 99 147 190 204 237 253 255 211 82 53 56 27 11 47 221 255 251 236 239 253 238 209 220 199 118 180 232 249 247 252 227 128 11 1 1 1 18 8 4 33 177 200 215 234 241 233 211 183 166 167 170 159 144 163 220 251 233 87 46 129 138 11 1 78 177 216 239 226 226 232 236 246 252 224 169 162 137 1 1 9 182 160 149 238 247 252 254 253 106 1 1 1 31 121 225 195 190 188 70 9 41 25 1 29 155 237 253 252 249 233 250 222 228 254 144 188 246 245
239 249 249 244 159 42 1 38 245 250 253 255 221 165 150 125 119 86 49 54 65 63 130 198 178 184 216 247 255 254 249 238 214 193 203 216 213 208 231 165 150 157 134 176 226 200 229 212 155 176 205 200 222 244 164 42 1 1 1 9 62 105 230 252 250 237 243 250 249 232 199 200 134 167 221 250 236 201 107 68 8 1 1 55 65 52 46 47 169 205 215 240 254 252 251 253 252 241 217 197 184 168 151 162 167 91 67 72 32 1 1 104 191 240 248 239 234 240 242 245 250 216 124 49 1 1 1 184 250 177 155 231 252 245 252 225 52 1 1 19 97 147 232 226 198 217 105 63 64 22 13 127 223 250 253 250 240 193 242 207 198 231 129 193 245 246
255 252 252 235 110 13 1 97 246 242 253 251 214 169 125 102 107 67 34 36 58 61 85 194 226 233 232 239 251 255 246 215 240 206 179 186 204 202 176 140 149 154 110 135 228 236 236 250 167 179 209 199 167 120 36 1 1 1 41 96 125 112 223 244 250 247 248 237 240 235 220 216 190 128 196 236 229 148 54 36 1 1 95 179 142 114 79 51 139 202 178 181 199 237 255 244 240 247 255 245 243 247 226 173 132 128 61 8 12 10 46 178 223 252 245 241 239 243 241 238 224 88 1 1 1 1 66 250 255 185 163 213 252 251 250 191 44 29 50 115 182 175 191 252 208 228 145 73 44 8 51 216 252 252 251 250 208 153 235 206 166 184 200 194 236 253
253 255 251 202 73 22 9 140 227 219 228 249 222 151 90 72 87 48 26 39 53 52 63 194 234 235 226 209 216 241 252 208 206 235 191 177 166 133 78 44 46 103 153 146 220 255 242 239 158 165 209 194 72 26 37 17 24 81 128 116 78 102 224 235 241 250 255 236 223 201 239 241 211 96 190 235 241 196 104 75 58 100 205 212 140 94 59 26 77 200 179 173 183 198 221 250 252 239 241 254 247 213 179 129 104 77 1 1 21 32 85 226 233 248 244 227 231 240 238 243 235 57 1 1 1 23 189 246 253 208 185 211 246 255 250 180 26 13 62 178 218 176 139 236 216 214 177 51 41 38 121 249 254 252 253 237 165 171 240 236 199 207 249 204 211 249
240 252 243 169 95 63 39 182 239 226 201 187 203 130 64 58 83 51 31 44 41 43 72 196 226 224 229 217 203 208 240 227 195 224 218 154 112 74 57 64 83 146 203 184 235 254 244 134 49 44 54 21 1 1 40 44 81 105 74 47 70 164 241 246 250 246 243 247 212 197 241 251 195 100 199 242 238 198 84 96 159 208 237 206 94 52 32 15 55 211 193 181 179 172 162 165 194 230 221 211 149 94 52 20 62 60 3 1 44 53 114 245 244 233 252 234 226 237 244 243 196 6 3 9 40 145 239 244 252 226 208 220 241 250 243 122 1 1 74 239 248 169 88 175 233 220 217 66 80 107 176 253 252 253 252 219 192 206 230 250 243 239 247 170 107 126
236 245 243 152 108 56 34 204 245 247 234 197 171 123 56 58 68 41 22 30 38 48 84 182 215 209 225 236 232 218 230 245 209 200 221 234 188 136 139 166 179 181 173 207 247 242 108 12 10 11 16 10 1 17 52 47 61 67 54 82 159 232 253 252 251 254 252 254 217 216 234 248 205 127 201 244 242 189 82 114 190 231 242 170 54 43 34 29 54 190 199 186 184 183 177 164 152 121 70 80 66 84 63 34 90 76 11 17 88 105 167 251 245 217 243 240 214 202 201 177 58 1 45 94 103 161 238 249 250 242 219 221 234 238 193 68 1 7 153 252 253 170 49 105 234 213 235 114 126 140 167 233 254 250 251 231 227 212 215 243 247 241 225 76 20 38
243 241 250 123 41 1 21 211 230 233 244 241 219 157 76 61 57 38 21 41 49 42 70 168 216 204 206 217 232 228 229 250 222 208 213 231 243 238 240 235 225 217 205 216 234 156 16 27 79 71 70 72 64 85 87 40 44 75 98 171 237 254 248 253 239 254 253 254 222 232 237 223 173 116 198 248 250 169 98 159 218 240 229 123 44 37 41 53 58 139 214 198 206 214 216 205 164 103 57 65 47 59 35 24 73 33 1 56 180 198 218 243 218 172 209 208 190 160 127 85 23 59 148 123 90 147 240 250 244 253 236 211 228 207 125 56 5 31 219 251 253 145 3 36 205 185 224 188 159 163 161 205 247 244 243 253 242 217 193 229 246 219 213 83 65 107
240 233 216 20 1 1 65 235 239 228 223 237 245 189 83 48 45 29 16 32 30 26 72 202 240 227 219 218 230 234 229 239 240 218 224 226 230 237 248 244 224 217 230 235 242 114 22 81 132 153 152 115 109 110 51 7 41 107 154 227 254 254 248 252 232 254 249 249 250 229 216 183 105 108 182 221 201 149 155 212 222 187 79 24 2 6 40 76 49 76 199 182 192 203 192 170 133 74 28 22 17 11 1 10 64 67 104 221 245 227 248 233 146 135 195 216 223 229 197 78 26 118 170 82 126 174 236 251 249 246 255 222 205 147 62 32 13 82 252 250 242 75 1 6 190 187 217 243 174 166 148 173 200 237 241 252 253 208 175 223 248 235 155 44 64 141
248 240 179 22 11 35 143 251 252 251 236 225 239 153 24 1 1 1 1 1 4 28 98 224 240 235 226 217 214 209 193 183 203 232 236 235 236 239 225 211 223 222 236 234 246 100 43 140 179 185 152 129 160 98 16 14 80 161 212 249 253 254 251 248 244 255 255 254 242 232 200 73 8 71 87 63 90 139 198 224 170 51 18 17 1 5 55 81 34 44 179 183 182 182 141 103 84 39 3 9 18 17 47 118 199 241 249 248 250 229 243 207 112 135 204 239 238 239 144 16 33 110 144 151 205 176 212 255 253 252 251 236 146 50 25 43 61 162 250 248 152 43 1 1 190 201 209 240 132 87 70 109 185 251 243 247 254 176 184 241 235 209 90 44 73 113
252 254 200 101 54 47 158 246 245 253 248 250 241 130 4 1 1 1 1 1 17 55 146 240 242 222 199 191 187 175 155 134 130 165 230 245 245 253 238 190 192 220 247 232 236 79 56 146 152 111 77 87 97 37 26 77 174 237 245 253 254 254 253 250 255 252 249 249 232 241 112 1 1 1 1 23 82 95 93 81 33 23 50 32 4 14 54 63 49 48 150 196 162 131 106 87 56 15 23 82 150 206 246 254 249 250 236 248 236 242 241 215 118 121 199 232 225 155 1 1 60 125 136 175 216 169 220 251 245 241 242 199 46 20 48 77 107 226 249 249 45 10 1 14 202 204 197 177 45 62 123 214 234 247 247 245 239 127 172 229 212 91 78 119 79 61
245 249 191 80 33 53 145 244 235 251 249 248 249 117 11 1 3 1 1 22 57 94 196 252 255 251 225 185 175 176 166 157 151 145 152 163 174 196 221 227 191 205 236 254 218 38 58 124 108 85 94 92 55 29 59 122 217 253 247 247 255 253 252 251 250 252 253 247 231 147 1 1 1 1 45 84 102 92 58 17 1 4 1 1 1 32 67 70 62 37 108 202 154 118 100 84 61 61 139 229 254 250 247 248 250 249 233 213 248 240 251 220 116 95 197 233 229 135 4 45 135 172 153 106 84 131 236 249 240 239 210 53 40 51 90 126 152 241 250 61 1 9 11 35 218 217 206 186 120 221 220 220 218 210 251 248 118 50 80 92 54 18 77 137 62 59
244 185 120 82 78 76 118 248 244 249 250 231 131 5 1 1 1 1 10 55 91 128 223 248 253 244 235 226 167 161 181 202 207 191 141 79 72 97 109 119 173 244 235 233 112 17 97 150 141 145 162 147 108 99 115 150 212 234 247 249 249 243 241 239 220 186 178 176 133 1 1 1 1 93 166 162 108 80 63 29 8 1 1 1 74 157 172 141 81 53 111 219 207 209 214 219 223 239 251 249 248 251 248 246 251 224 252 198 206 245 235 236 126 104 193 251 247 113 34 111 197 223 231 220 211 219 206 167 127 120 79 1 38 49 146 181 171 213 126 1 17 27 4 37 228 226 227 240 228 238 224 234 227 195 245 168 1 1 1 22 22 16 45 75 35 48
153 137 148 163 116 54 87 243 243 241 249 118 1 1 1 1 1 1 6 52 109 176 243 252 244 255 208 206 211 167 174 192 191 150 83 53 66 81 86 81 100 154 219 159 39 65 156 185 189 176 169 115 64 91 125 177 221 231 222 239 239 233 221 197 167 147 127 117 90 1 1 1 52 169 193 120 47 58 88 77 55 52 56 139 226 212 172 116 75 72 131 229 235 242 255 249 237 231 239 254 238 245 253 226 245 239 236 121 127 166 152 165 224 152 160 216 177 33 30 100 198 219 221 243 252 254 246 241 228 216 168 15 5 1 106 206 179 131 47 3 29 16 1 65 242 231 228 251 251 243 134 72 74 71 75 17 1 1 17 46 38 25 21 24 11 15
109 112 99 102 60 45 117 240 244 216 189 66 1 1 1 1 1 1 10 56 154 238 253 252 254 251 234 166 210 203 155 144 110 48 35 69 105 108 96 90 107 123 132 113 46 122 194 179 164 126 93 46 37 87 120 200 232 241 234 245 246 243 242 212 177 158 153 160 142 24 2 63 114 168 147 51 37 100 139 149 142 155 191 238 252 223 126 86 67 51 124 222 228 210 211 234 253 247 217 252 243 233 254 222 229 254 170 49 55 57 114 180 228 182 69 49 4 1 25 68 154 166 148 174 225 250 248 243 248 254 136 13 1 1 108 153 126 63 41 50 87 63 44 192 252 241 223 216 226 152 21 82 123 81 46 16 12 71 151 155 108 77 62 52 50 50
112 93 77 76 72 108 168 232 246 226 212 88 1 12 6 1 32 43 40 86 199 242 251 252 250 254 250 202 154 200 186 136 93 82 146 205 227 219 170 138 147 150 129 124 113 149 172 99 72 52 62 82 84 103 139 210 226 236 232 215 221 251 234 213 207 196 204 207 192 89 58 138 154 141 111 75 91 163 198 193 192 209 225 245 255 225 115 77 45 29 115 232 245 238 194 153 156 183 229 253 249 236 240 252 212 163 65 69 56 71 166 191 163 1 1 1 1 22 55 142 226 234 222 209 210 220 243 255 252 162 14 1 1 41 205 214 207 151 119 100 95 73 90 241 251 248 228 202 174 93 76 139 133 106 101 103 135 175 168 140 120 96 89 88 97 83
144 133 149 150 155 167 178 208 224 215 175 51 14 31 31 54 94 74 46 90 199 225 225 246 250 233 249 246 148 130 211 214 222 246 255 255 255 249 224 232 218 215 213 207 165 84 52 31 104 154 178 179 142 131 150 168 193 214 219 208 201 212 232 199 198 236 252 252 253 150 124 191 165 109 105 106 121 192 219 203 205 219 226 244 254 212 84 22 8 25 123 246 249 254 250 246 214 195 191 215 227 230 232 238 118 35 59 78 29 75 151 119 1 1 1 1 21 89 158 246 252 248 253 253 245 238 238 215 64 6 1 1 1 76 220 212 236 214 106 51 57 62 79 239 247 250 250 245 250 189 158 140 89 110 158 188 187 165 135 150 149 93 79 84 70 52
157 138 146 151 174 185 194 214 226 222 170 78 73 65 48 51 66 39 26 83 210 234 217 219 254 201 238 241 181 104 145 246 249 255 255 255 255 249 210 238 251 236 241 239 166 39 34 96 189 197 198 213 178 124 105 99 167 200 201 215 224 212 213 202 196 246 255 253 247 105 118 202 143 68 87 118 148 209 227 215 210 214 227 243 244 117 1 1 1 15 148 244 241 254 240 247 254 253 235 210 199 203 213 220 72 27 16 15 1 50 114 70 1 1 1 1 93 156 227 253 253 249 246 251 222 177 163 51 1 26 28 1 4 111 194 163 160 159 4 6 55 70 67 231 242 249 254 248 253 197 194 148 105 164 209 210 170 152 205 223 190 110 92 102 70 68
141 162 136 120 163 196 208 226 237 240 204 144 150 110 57 45 55 42 31 76 214 232 223 210 230 218 212 253 223 110 98 235 227 235 239 241 246 252 223 232 253 247 238 234 176 61 100 177 199 181 166 151 76 20 51 114 178 208 174 152 153 165 160 150 178 212 192 160 103 1 18 90 80 48 93 144 163 214 238 226 210 207 226 224 150 13 1 1 1 45 215 244 235 249 247 241 248 248 248 254 247 230 211 164 61 9 1 1 1 44 115 127 26 1 1 60 137 182 209 210 204 189 162 87 29 60 41 1 1 44 51 22 11 95 155 169 160 73 1 27 65 63 72 230 241 253 254 241 252 202 159 115 108 174 211 204 189 183 205 220 198 122 75 62 56 70
142 196 157 111 156 204 214 222 223 202 152 122 143 92 38 39 51 54 34 63 218 225 218 210 210 240 220 251 222 90 59 211 231 239 239 224 218 236 244 237 247 255 254 242 161 51 106 169 179 151 89 53 50 86 170 193 182 212 229 187 136 131 136 148 155 122 86 73 28 1 3 82 93 76 118 162 185 222 229 184 127 114 129 82 7 1 1 1 20 149 248 246 236 239 253 244 237 242 244 242 247 251 244 60 1 1 1 1 1 87 146 102 1 1 1 58 109 107 81 64 41 17 5 1 2 64 57 21 18 47 56 7 1 63 155 182 135 48 12 18 19 34 126 252 250 254 253 236 228 191 62 63 100 200 229 208 204 180 173 205 190 105 48 27 35 69
177 197 136 60 93 142 150 123 105 74 47 50 39 9 3 24 37 31 16 46 203 209 189 185 189 217 249 249 173 48 38 203 235 240 250 250 240 226 239 251 247 252 230 168 95 47 106 157 147 97 64 135 221 220 218 198 183 213 197 185 211 197 203 202 183 132 113 95 44 3 31 92 83 55 66 99 161 183 117 34 1 1 7 1 1 1 1 15 107 226 253 247 232 226 232 253 241 235 254 251 243 245 173 12 1 1 1 1 2 111 123 36 1 1 1 67 96 63 29 29 29 25 21 10 22 66 85 75 61 84 76 9 14 140 196 171 67 42 38 6 3 61 215 251 249 254 235 245 207 142 70 91 163 251 247 205 175 106 74 88 48 4 13 11 28 68
196 147 59 1 8 29 32 19 32 30 37 61 44 44 60 66 44 20 12 36 183 224 206 194 188 201 236 244 115 55 55 213 237 238 243 247 252 253 248 242 227 144 61 70 105 103 145 161 119 110 160 231 249 238 216 178 187 209 141 139 228 232 224 237 217 114 104 117 84 52 69 87 55 30 18 25 44 29 1 1 1 1 16 17 10 16 45 117 219 247 247 255 238 213 201 203 240 244 250 249 251 218 49 1 14 16 1 14 59 104 67 1 1 1 121 200 199 148 98 82 58 37 18 6 19 45 50 47 45 61 36 3 81 193 178 87 21 25 23 1 14 134 217 222 220 226 191 180 166 151 162 150 201 249 226 103 72 62 44 36 11 1 1 1 1 36
231 203 146 80 75 63 42 34 37 30 39 64 76 107 120 88 33 5 1 25 187 239 232 218 202 202 215 222 97 64 57 209 235 238 241 239 240 249 254 250 162 55 71 151 204 188 168 144 129 178 216 239 250 245 207 155 159 126 68 134 222 236 216 203 152 54 103 137 106 88 106 109 86 65 45 46 42 24 1 1 21 67 95 80 68 69 110 215 250 248 240 235 251 247 231 215 210 240 253 251 242 53 13 27 34 53 75 133 129 75 44 6 50 213 241 241 247 237 229 228 186 156 142 138 136 100 64 49 31 14 1 19 93 101 59 20 4 12 14 1 30 135 170 168 148 132 110 83 91 104 153 180 209 186 79 52 39 14 1 1 21 36 14 1 1 60
234 238 233 165 95 73 100 115 97 81 68 64 61 68 62 39 1 1 1 27 205 238 238 240 237 229 224 233 138 81 61 200 233 236 252 251 239 227 234 211 59 47 123 199 220 215 168 142 165 208 220 236 244 216 129 82 59 36 68 200 246 246 233 195 116 51 95 106 84 76 77 81 99 95 86 93 83 71 54 72 131 160 170 133 123 153 215 251 253 250 244 228 225 252 252 253 250 242 239 239 140 20 42 67 58 103 158 154 81 5 13 95 227 255 245 227 221 214 202 210 218 234 234 233 221 195 179 142 88 50 50 87 102 81 78 71 47 48 54 63 124 185 187 165 123 103 94 63 62 100 114 83 63 34 3 16 6 5 20 17 28 34 10 4 45 164
238 241 247 182 55 50 114 147 146 123 106 110 87 47 24 8 1 1 1 71 227 237 239 244 246 246 246 253 175 82 60 180 236 221 240 252 254 252 235 128 2 22 87 140 155 163 181 175 184 205 214 235 225 154 105 73 41 64 164 249 254 244 244 232 132 44 64 93 91 80 66 75 85 68 83 104 111 124 143 172 197 213 212 165 178 231 247 254 254 252 253 233 219 254 252 255 254 250 246 224 50 1 1 1 28 149 180 81 5 1 3 138 182 190 213 254 238 218 201 204 219 226 219 220 187 150 193 196 147 137 144 156 158 149 145 119 99 122 154 187 215 229 205 158 125 112 91 77 99 162 157 110 56 19 1 1 15 57 92 33 1 1 1 27 125 235
225 236 233 147 36 57 130 145 120 60 51 72 47 7 1 1 1 1 8 145 241 235 233 232 236 243 247 253 163 50 66 169 247 222 230 251 255 252 210 103 34 43 88 119 125 126 156 196 183 192 223 234 191 143 131 82 84 150 231 253 254 251 229 177 84 48 107 155 160 151 134 154 141 98 101 114 130 148 204 228 225 243 231 187 186 202 233 255 255 252 246 247 219 252 252 255 253 249 245 114 1 1 1 1 27 105 101 1 1 1 9 163 195 190 181 200 248 243 202 195 235 242 222 203 163 152 151 133 162 186 189 204 194 159 141 147 182 216 233 242 240 239 221 177 147 131 116 131 177 228 235 210 126 102 57 46 77 101 75 21 1 18 61 124 218 254
183 172 145 106 58 74 130 98 27 1 9 13 1 1 1 2 1 8 67 203 243 235 228 217 204 207 212 206 122 58 105 169 249 243 242 249 251 197 76 56 36 24 81 145 149 151 150 142 114 120 180 203 152 115 97 81 134 205 244 254 252 252 181 73 41 71 151 186 188 172 157 160 130 135 156 154 164 185 237 250 233 251 249 205 176 146 192 246 250 253 244 242 247 247 254 254 254 233 141 18 1 1 1 21 102 113 28 1 1 1 12 200 234 235 219 203 205 244 224 180 243 254 238 144 115 144 111 94 157 195 202 209 198 186 190 206 228 245 246 244 238 217 214 234 235 221 209 232 253 254 252 226 153 153 113 110 155 156 141 110 50 60 140 205 250 255
125 107 70 69 50 28 19 1 1 1 1 20 25 61 112 146 139 137 158 219 230 213 199 184 168 159 158 168 181 138 137 171 245 247 240 228 155 37 1 17 4 1 66 155 171 166 147 121 84 70 87 97 103 88 94 125 196 238 236 245 250 174 33 12 51 114 161 167 156 125 113 112 95 135 167 165 181 207 235 244 246 250 252 233 129 65 159 237 236 252 249 244 245 254 253 236 134 25 1 1 1 8 28 76 161 94 1 1 1 1 16 180 203 204 200 178 147 120 87 97 209 235 195 78 120 130 119 142 171 181 205 225 229 225 219 222 229 246 254 247 247 226 203 213 219 230 253 252 255 255 248 241 139 127 92 122 165 164 174 135 58 69 155 236 250 252
93 61 46 75 33 1 1 1 1 1 17 73 149 208 213 206 194 174 174 204 242 200 163 157 159 152 154 177 214 203 159 176 239 253 242 162 34 1 1 1 1 5 69 139 153 129 110 114 100 70 83 123 163 163 153 185 236 249 234 226 194 74 48 96 147 188 187 159 165 164 156 152 147 161 179 176 175 206 219 219 237 248 249 235 112 39 150 232 228 239 246 247 235 238 204 41 1 1 1 8 1 39 94 146 166 106 61 14 1 1 26 127 151 153 146 123 105 77 63 112 204 230 213 137 186 158 163 192 187 182 201 212 215 216 201 194 233 228 229 248 254 240 198 190 189 211 244 236 234 228 207 138 33 26 74 153 147 123 135 129 91 96 183 242 250 254
74 46 35 39 1 1 1 1 1 54 104 198 235 224 217 218 202 156 152 178 208 221 180 149 142 151 160 160 163 192 190 177 233 250 239 141 37 4 8 1 10 42 84 120 126 114 119 127 98 75 135 205 231 229 188 207 244 249 223 170 96 101 162 188 215 228 187 153 193 201 171 165 175 176 197 197 177 212 226 213 198 216 241 211 75 16 123 219 202 190 198 241 242 151 1 1 1 1 30 51 62 103 118 111 78 69 93 41 12 26 47 134 158 156 142 133 151 179 208 221 221 204 147 152 231 166 148 192 202 213 213 199 195 213 188 155 180 210 185 214 238 239 184 151 139 182 226 230 246 240 204 97 1 1 59 131 89 66 176 197 131 124 197 235 241 254
79 49 32 21 1 1 1 1 54 140 180 247 251 222 204 218 200 139 122 143 166 208 228 215 183 159 145 134 135 160 202 195 218 238 206 98 30 14 21 22 81 150 195 215 204 174 147 128 112 146 219 239 238 182 123 185 230 233 204 138 114 157 203 211 242 234 152 171 215 183 125 137 163 172 191 188 176 206 225 212 182 159 151 91 33 18 117 216 190 164 162 185 167 8 1 1 1 31 86 87 85 79 42 4 1 12 26 9 19 55 89 175 176 146 138 158 182 192 191 177 168 132 57 92 175 205 149 188 214 227 226 190 178 204 166 118 130 215 233 222 217 216 188 151 133 181 247 243 251 173 62 16 4 23 59 72 69 114 235 237 132 133 202 233 230 240
153 131 128 105 23 1 12 53 175 224 221 253 254 222 187 217 194 129 105 124 142 182 233 245 230 183 156 151 154 145 132 154 159 162 129 40 1 1 21 86 209 249 244 238 232 227 216 199 196 223 243 241 210 46 32 98 127 132 154 162 155 185 224 228 240 210 135 203 213 106 69 120 134 151 169 162 187 194 200 202 182 160 126 85 62 49 129 216 215 202 184 160 75 1 1 2 28 103 129 130 145 133 45 1 16 54 73 61 53 66 97 128 166 137 143 167 168 133 109 132 147 90 53 120 157 163 147 202 227 223 181 109 188 193 97 92 151 223 254 242 242 253 229 168 156 189 255 243 208 24 8 52 71 59 111 139 115 137 191 206 152 132 200 247 247 226
207 215 216 183 103 90 133 203 249 235 206 244 255 215 196 225 185 114 95 110 117 152 207 201 192 175 156 159 154 116 76 72 51 78 105 11 1 1 57 193 250 255 249 232 210 223 240 241 242 242 236 215 117 8 58 116 90 52 53 74 120 197 236 240 225 179 163 167 93 30 60 117 129 166 179 170 203 173 151 171 157 154 136 109 80 68 154 228 234 237 235 220 142 28 55 71 87 136 146 150 182 171 65 37 81 144 171 129 87 69 88 84 134 165 151 147 139 132 142 148 118 51 87 151 149 107 65 74 43 6 1 27 150 157 38 107 203 228 247 246 245 246 240 145 155 207 252 249 138 33 108 194 196 172 191 196 177 151 157 197 204 124 206 254 248 199
210 227 229 192 145 151 176 229 247 239 193 223 248 214 224 222 164 111 91 94 110 136 202 181 177 176 173 156 136 102 91 102 84 105 116 7 1 21 159 246 253 252 252 231 201 213 239 238 232 244 240 184 63 11 73 124 96 47 30 25 38 80 111 115 125 157 126 60 62 98 113 147 180 209 200 159 171 132 103 135 140 146 127 105 82 72 161 222 233 241 232 199 137 63 77 86 91 145 154 145 166 162 132 121 166 218 215 167 117 84 104 95 110 190 178 160 147 160 165 138 83 67 120 120 85 61 67 77 32 8 33 120 176 159 57 150 217 208 231 237 227 210 205 130 154 240 247 237 147 115 178 201 203 195 157 123 123 135 172 185 172 125 216 233 168 146
204 227 243 219 167 168 178 225 252 248 195 208 231 216 220 186 130 92 71 74 115 120 167 230 225 208 202 156 111 77 79 94 84 75 57 1 1 102 232 249 254 255 251 220 185 198 236 236 228 239 204 83 23 21 72 108 76 15 6 24 31 31 32 46 82 118 93 96 142 151 159 190 213 214 177 106 117 132 112 136 159 161 142 129 110 101 166 187 176 146 93 64 53 36 46 75 89 159 188 189 202 200 217 187 169 207 219 192 115 75 105 102 82 181 189 181 174 177 181 144 91 109 129 100 79 84 120 124 42 41 112 167 147 112 139 208 228 221 241 247 218 174 167 187 181 230 165 96 85 94 103 55 46 51 32 27 30 39 83 84 40 31 69 51 18 50
213 223 238 235 178 151 166 214 212 180 181 213 217 182 154 106 92 83 67 88 119 97 159 249 250 232 222 186 121 82 81 76 60 45 43 32 35 164 240 244 248 253 245 202 188 212 243 238 231 202 104 38 29 32 44 61 35 1 17 44 45 45 50 61 80 107 150 172 146 166 199 189 190 155 98 87 120 137 121 137 181 178 143 129 131 143 186 184 141 87 61 74 79 45 49 84 97 173 201 208 229 236 236 229 177 153 197 184 80 63 111 104 80 144 171 139 146 154 138 114 143 175 163 148 155 170 178 104 11 62 133 139 102 91 132 191 236 247 227 206 230 238 234 234 144 75 1 1 18 1 1 1 1 49 61 50 21 32 63 54 26 11 11 8 20 50
217 216 235 207 108 73 110 165 171 186 212 208 167 109 91 95 102 97 85 98 86 68 159 243 252 237 212 220 211 200 180 155 128 117 132 116 103 218 240 242 243 247 240 196 204 225 241 222 183 104 61 61 49 29 26 42 43 58 123 173 164 128 104 87 81 97 124 149 153 201 193 145 138 121 123 120 100 91 115 153 182 175 132 122 133 146 173 179 161 141 140 151 124 75 103 118 106 164 197 225 243 234 190 189 196 115 167 188 96 89 147 125 95 96 159 138 119 108 87 93 117 115 113 138 186 224 209 41 5 57 77 94 116 151 159 142 178 227 252 179 203 246 252 212 62 1 1 8 29 2 1 9 46 63 45 28 10 54 107 124 144 136 107 88 89 95
211 211 217 173 122 117 150 178 188 203 212 188 160 150 164 156 112 92 78 51 24 53 188 245 247 244 202 210 218 217 225 230 218 209 198 137 149 232 238 242 243 244 242 213 214 207 175 69 18 24 38 45 24 2 29 107 177 226 247 240 216 215 197 135 111 114 115 121 140 153 127 119 137 131 113 73 60 107 162 180 179 167 149 134 135 149 161 163 162 151 144 137 103 99 135 120 100 149 187 202 205 150 86 126 170 156 169 206 127 92 149 138 89 74 92 170 136 125 125 116 86 78 118 178 227 244 140 1 1 20 35 72 107 135 146 160 177 166 155 115 168 220 146 17 1 1 6 67 86 84 94 100 104 90 70 36 22 75 128 155 188 214 195 204 206 201
219 213 207 162 134 136 175 215 236 229 228 229 221 205 181 111 69 90 72 26 22 122 244 250 245 240 215 215 215 208 225 229 219 215 177 119 199 231 229 224 221 227 236 198 139 42 1 1 1 1 1 3 5 3 71 210 252 252 250 243 200 182 194 197 184 162 146 143 141 128 119 85 69 52 31 51 112 176 191 178 169 149 138 132 147 163 153 147 139 108 101 106 116 139 136 104 105 157 184 172 153 93 75 125 138 178 209 198 131 61 57 62 52 71 57 147 209 196 182 166 153 161 181 205 218 203 4 1 1 12 35 76 98 103 106 120 147 160 152 140 189 180 59 13 54 91 104 133 161 162 139 135 153 154 157 148 128 144 166 178 196 229 228 205 232 243
204 200 199 166 140 143 194 233 243 229 225 235 225 192 131 50 53 103 69 30 68 212 250 248 245 242 222 206 198 215 231 214 204 191 126 138 224 227 217 202 202 215 199 68 1 1 1 1 1 1 1 1 1 31 157 242 248 255 252 247 204 171 175 179 207 196 158 156 184 191 152 94 78 70 69 143 193 198 189 169 157 131 120 135 150 146 126 118 111 96 110 131 153 154 118 92 107 154 184 184 154 93 95 143 140 132 153 171 120 18 1 35 53 64 44 110 226 206 185 162 161 185 186 166 133 33 1 1 1 48 118 174 182 184 180 170 174 174 176 223 254 213 136 138 194 181 108 94 133 150 183 216 191 165 184 199 174 165 180 199 227 234 247 202 239 252
191 187 178 144 144 150 188 225 228 208 200 203 185 159 88 18 39 89 48 39 143 244 248 239 239 235 199 168 158 173 173 157 157 120 73 152 212 214 217 219 214 193 76 1 1 1 1 1 1 1 3 27 58 146 227 243 232 242 251 245 223 177 171 160 147 192 180 167 179 206 184 130 103 106 146 211 216 199 195 176 139 121 126 135 152 157 144 128 124 124 128 132 136 119 76 63 100 155 179 175 142 94 107 137 131 102 70 73 54 1 1 45 51 48 44 66 173 167 145 123 125 155 161 144 108 5 1 1 41 199 248 252 244 241 243 229 198 179 188 209 236 227 130 161 206 153 77 88 160 216 237 230 180 157 199 202 141 107 156 201 224 226 241 206 243 251
187 221 157 85 167 176 169 201 199 196 203 185 160 141 62 11 52 73 30 73 213 250 245 234 221 201 182 171 154 147 118 89 71 48 58 164 208 201 195 195 183 135 4 1 1 1 1 1 17 134 198 220 236 251 249 245 228 220 236 243 229 152 145 158 121 161 212 203 193 203 200 157 128 133 193 227 217 189 174 139 95 106 114 119 144 154 152 153 153 135 124 124 109 77 54 63 108 150 159 137 107 99 106 102 96 98 88 88 49 1 1 16 32 69 63 62 161 158 121 130 181 214 223 202 122 1 1 48 221 255 252 251 254 250 253 238 237 210 210 216 227 248 160 169 187 132 85 106 197 232 233 199 104 91 108 55 8 32 133 212 238 237 246 219 246 252
69 121 92 68 220 195 118 170 198 200 198 193 195 159 72 40 74 47 43 168 239 247 238 239 216 184 168 141 121 121 115 99 75 66 86 171 193 167 144 140 128 93 1 1 1 1 1 46 175 249 244 238 243 243 247 243 238 228 236 244 208 112 162 208 143 130 205 235 230 241 235 188 153 153 205 212 187 147 118 81 63 84 89 102 121 136 151 170 170 139 140 135 106 75 67 87 134 173 162 106 96 109 88 87 105 114 105 94 51 1 1 28 45 70 53 62 138 140 130 175 218 238 240 153 28 1 40 205 247 250 252 236 253 240 252 197 227 232 224 215 198 170 197 200 164 126 97 105 203 216 121 27 1 1 1 1 8 91 204 245 247 243 249 233 252 254
126 115 83 144 241 155 39 103 213 240 202 195 185 133 86 62 55 22 98 244 249 242 225 231 225 200 154 116 114 126 145 154 149 144 137 165 144 115 119 125 120 90 1 1 1 1 63 188 248 253 252 245 242 227 237 252 253 248 250 254 204 151 223 236 157 107 180 255 248 253 238 169 157 179 189 154 100 88 93 76 61 72 84 111 160 188 202 203 193 166 160 137 117 117 113 125 168 196 169 101 106 99 69 96 125 102 67 59 56 51 70 76 42 30 25 52 117 128 161 197 192 153 63 1 1 58 203 245 246 247 254 211 238 204 183 152 214 245 247 217 118 87 110 116 115 101 41 38 109 111 56 19 1 1 1 1 89 191 239 247 240 233 241 227 238 244
145 136 122 152 191 77 9 153 249 250 215 203 181 135 94 47 17 36 183 254 243 206 165 217 226 190 163 170 194 206 211 207 193 183 172 180 163 144 142 139 126 70 1 1 1 67 204 253 255 255 255 250 235 221 237 250 253 251 249 243 199 178 226 233 139 89 175 244 254 251 233 128 123 121 55 35 48 70 79 59 49 82 127 187 224 216 210 197 181 164 157 143 132 140 159 187 207 195 133 87 105 94 85 120 139 111 84 98 92 81 93 52 18 26 46 104 163 168 192 186 140 73 40 60 145 230 247 237 238 245 254 209 208 237 193 171 205 222 240 226 187 169 124 64 70 26 1 1 18 56 51 32 22 15 1 4 101 160 191 201 216 219 229 210 217 215
196 171 158 153 125 20 32 246 253 243 227 195 147 164 114 25 20 114 234 248 250 192 106 186 231 181 160 208 243 234 214 210 207 197 165 132 166 174 166 161 121 14 1 1 31 163 248 254 252 252 252 248 226 218 243 251 255 251 244 250 218 199 236 231 78 83 196 241 248 230 212 89 52 63 51 71 88 93 71 44 65 131 205 240 236 213 203 188 167 157 131 134 147 149 175 193 187 159 107 92 122 136 147 151 149 133 113 126 97 63 47 5 3 33 71 147 202 219 232 219 183 174 203 238 249 254 252 228 186 163 164 198 225 243 254 244 240 223 216 222 202 200 157 157 161 35 1 1 7 26 28 18 1 18 9 78 204 200 180 171 188 203 222 226 242 238
246 234 216 198 142 74 184 252 251 229 231 180 113 135 54 1 33 161 238 245 243 182 119 165 212 165 163 227 249 251 210 199 218 213 165 90 100 160 166 161 96 1 1 10 82 224 242 246 253 253 250 241 216 219 244 250 254 239 186 147 165 204 184 101 60 127 199 210 199 200 170 51 17 83 116 127 121 106 60 60 133 191 240 248 220 190 197 182 170 139 93 119 158 171 172 148 126 118 98 104 134 149 162 155 137 96 65 82 84 71 58 22 13 36 80 135 197 232 242 244 249 253 254 255 252 253 254 246 210 167 144 150 206 251 254 231 229 251 226 224 221 224 233 234 152 33 1 1 21 36 68 55 17 23 1 112 238 242 239 234 220 217 233 247 245 238
255 230 185 178 165 202 254 250 228 130 152 178 98 27 1 1 36 218 250 242 202 185 176 160 153 157 193 235 240 236 233 201 217 209 171 77 60 115 169 124 31 4 32 68 170 233 241 240 224 220 228 235 231 234 237 241 248 241 228 224 234 231 138 92 130 149 161 171 184 177 115 9 1 74 134 152 136 105 75 123 200 218 246 243 195 179 200 200 178 106 77 128 168 181 172 165 150 130 106 112 139 147 148 124 89 66 65 76 67 57 66 50 31 50 86 132 212 245 252 255 254 255 254 255 249 252 255 250 252 251 252 254 252 251 249 235 226 255 252 244 254 230 207 134 10 1 1 4 30 80 153 134 55 13 1 94 180 192 235 254 248 221 192 183 161 146
254 251 202 165 163 216 239 231 92 67 105 127 33 1 1 7 145 254 253 252 198 190 197 160 126 144 195 225 241 237 238 231 217 194 158 53 11 46 125 91 24 34 58 107 200 203 205 221 216 177 131 122 178 239 248 241 242 222 228 255 255 235 132 128 158 143 170 182 180 139 76 34 50 117 107 75 68 56 70 168 225 234 248 242 206 192 211 212 144 66 73 147 194 181 172 198 196 183 164 148 145 149 143 106 86 102 122 115 90 80 78 58 48 78 124 175 229 239 244 253 250 250 254 254 242 250 254 252 243 255 251 249 246 246 254 247 225 255 251 243 255 234 71 1 1 1 1 1 1 28 84 68 19 3 1 77 139 144 181 227 241 210 133 75 62 101
252 237 201 195 202 229 205 55 93 177 184 147 34 1 1 65 245 253 255 245 203 200 214 182 139 138 178 218 220 240 251 225 193 168 92 1 1 17 119 176 153 123 118 179 227 211 203 229 247 240 221 192 165 160 199 247 251 207 204 243 214 133 129 167 158 148 177 170 165 149 153 169 165 167 144 137 141 102 111 207 239 248 251 237 208 190 189 161 91 61 91 183 211 169 164 199 201 194 195 181 178 170 140 112 109 107 106 102 104 113 100 89 88 117 169 199 227 228 221 223 241 250 251 250 249 247 255 255 239 254 247 240 250 249 254 248 192 243 241 248 198 78 1 1 1 1 1 1 1 1 18 33 26 14 1 56 164 167 165 185 215 215 175 117 103 138
230 224 174 92 98 92 5 1 125 231 232 166 71 16 14 133 253 249 255 234 194 206 233 200 137 131 169 220 215 205 195 106 57 5 1 1 1 30 177 229 179 106 159 224 241 242 230 242 253 252 247 247 246 220 196 206 206 77 72 121 70 36 119 198 160 133 141 155 172 192 225 201 148 142 156 181 189 160 164 222 242 244 247 253 215 182 148 104 83 72 121 210 213 168 171 192 189 186 193 185 188 198 176 164 160 147 155 157 146 143 136 144 141 151 171 169 186 183 165 136 118 121 132 142 174 226 235 211 217 246 247 232 210 176 190 200 168 240 207 170 113 65 1 1 1 1 1 26 31 1 22 40 15 1 1 67 182 171 152 150 154 178 179 188 214 202
104 107 104 80 116 64 1 23 168 231 250 148 92 34 47 194 250 244 250 233 190 209 221 163 78 66 112 134 108 82 30 2 1 1 1 1 1 131 213 175 76 47 185 245 248 246 234 227 199 209 241 249 244 253 250 224 148 9 41 92 57 56 137 182 177 121 122 174 209 233 246 188 73 118 196 212 190 160 168 189 217 231 223 208 212 161 106 70 54 65 153 226 210 175 170 175 169 182 192 184 207 199 188 204 194 182 195 197 174 167 170 172 162 156 164 161 149 120 98 92 99 87 71 89 119 124 85 83 116 164 197 191 126 82 93 104 180 231 171 87 59 24 1 1 30 32 7 47 55 9 33 21 1 1 1 78 148 156 152 138 140 164 187 231 247 250
30 43 58 117 172 98 31 111 237 239 255 148 77 46 105 220 246 248 247 231 171 180 153 94 58 91 140 118 127 66 1 1 1 1 1 37 164 240 194 67 25 90 227 243 234 219 181 110 69 112 153 177 202 232 233 191 75 9 54 92 63 88 158 154 109 91 145 208 228 242 233 141 93 166 228 224 176 178 184 140 170 224 236 212 153 67 27 4 14 83 195 238 198 151 154 182 170 177 193 186 215 199 196 201 159 154 173 173 159 159 159 157 146 144 165 163 161 157 135 119 113 93 94 126 132 91 57 119 158 155 138 98 74 103 131 150 184 180 56 59 34 8 16 32 51 16 1 1 1 1 17 6 1 1 22 102 147 178 180 168 165 168 200 238 231 207
72 99 122 170 131 2 32 189 237 236 247 117 61 76 126 208 236 251 248 155 29 34 44 19 2 67 142 135 147 32 1 1 19 45 106 207 250 239 87 11 63 187 213 181 148 113 81 66 66 112 114 82 103 128 105 61 32 18 34 59 71 138 170 112 44 45 115 196 218 239 225 143 142 175 239 229 154 187 171 75 162 234 224 221 145 39 1 1 32 127 209 233 193 149 172 196 166 165 186 192 220 219 217 180 112 140 175 173 170 159 133 137 136 139 162 156 173 190 189 179 165 160 179 174 121 75 106 155 155 133 110 99 117 150 193 216 209 180 71 101 81 51 36 16 4 1 1 1 12 21 55 14 1 55 155 201 219 227 225 209 198 206 216 192 109 109
86 130 167 152 19 1 64 184 195 189 153 30 80 157 145 174 215 253 254 76 9 50 61 9 1 36 62 43 52 25 58 127 157 190 222 236 238 171 15 1 97 205 187 140 109 78 65 62 88 129 103 82 112 93 33 17 34 31 23 56 104 138 127 77 61 67 81 79 64 89 104 99 90 112 195 197 156 158 80 55 211 241 187 159 107 32 19 49 112 175 216 230 209 159 169 168 144 171 190 200 228 237 215 137 100 159 192 193 204 179 138 155 164 158 172 174 191 197 189 164 160 184 188 137 100 134 163 145 111 87 74 90 120 147 170 172 144 130 123 121 125 87 23 1 1 1 1 62 144 156 133 29 14 140 218 240 238 234 234 230 226 231 214 138 122 151
104 107 101 61 1 2 103 159 147 110 48 2 129 251 190 140 196 246 242 79 40 111 140 80 35 76 55 19 34 76 148 189 190 186 210 224 150 30 1 9 105 196 214 226 219 200 158 119 133 144 122 108 96 49 9 16 26 19 21 62 103 99 76 54 57 60 64 54 37 63 67 35 17 20 48 70 121 124 59 128 229 203 97 76 43 16 64 128 164 204 237 238 192 144 157 157 162 202 201 201 234 237 186 107 113 175 197 207 219 178 142 177 187 168 166 182 212 213 181 136 121 122 102 99 168 215 229 216 184 149 130 133 141 139 129 111 105 137 162 88 57 59 35 5 16 18 39 128 201 174 98 14 45 201 239 249 245 236 223 219 206 175 147 175 199 210
174 158 123 53 1 1 27 94 105 60 20 26 136 182 194 123 219 254 231 35 29 132 166 131 81 88 99 110 133 133 165 231 247 209 189 75 1 1 1 12 77 173 229 255 226 216 211 219 242 154 82 60 37 11 10 24 16 13 17 30 54 57 38 17 14 23 49 71 80 98 78 43 27 9 33 82 106 122 90 132 124 44 17 13 20 61 141 178 196 233 250 234 186 182 187 181 186 206 192 201 237 220 155 108 127 183 214 223 212 177 168 198 191 152 147 183 213 199 150 158 169 125 120 190 231 240 247 236 227 235 243 238 229 208 166 131 132 150 128 14 1 55 121 96 121 97 73 147 203 130 10 1 43 223 252 255 254 254 233 193 157 128 149 192 194 215
231 234 228 131 24 13 46 81 62 37 52 81 125 119 80 65 117 133 46 1 103 178 164 142 100 87 112 149 177 191 234 253 254 210 54 2 3 30 55 55 79 202 224 237 255 241 210 171 181 209 159 86 37 19 26 25 25 35 39 44 60 62 46 34 37 53 71 76 83 94 73 44 30 27 71 121 122 119 70 18 5 16 31 42 87 133 177 195 213 248 252 221 177 197 186 173 190 196 184 208 229 181 121 104 144 201 233 236 204 194 208 197 165 129 135 178 192 170 132 139 182 157 151 168 182 187 161 124 144 180 208 216 213 221 230 222 203 186 121 1 1 45 120 180 143 97 91 147 159 37 1 1 71 239 251 253 254 248 238 209 171 182 189 177 135 149
249 247 241 141 64 103 158 152 107 83 96 115 142 146 136 98 99 79 1 34 218 229 190 154 93 68 88 128 191 231 253 254 252 110 9 12 13 51 88 64 101 237 227 200 181 208 252 196 149 157 160 187 184 169 139 106 101 108 120 128 129 132 143 158 170 164 137 106 93 90 71 62 77 96 126 166 172 150 60 5 31 70 101 141 175 179 201 208 233 254 252 211 182 192 156 139 171 184 185 210 198 129 101 132 191 228 240 243 216 208 227 181 102 94 125 164 172 165 137 123 175 180 153 119 101 92 81 103 135 141 139 139 148 182 227 243 232 202 122 1 1 35 71 107 91 27 65 81 30 1 1 1 176 245 248 247 251 249 198 208 222 213 198 164 136 141
231 239 219 75 30 73 98 114 145 165 171 178 189 184 164 124 120 47 13 108 144 145 206 197 57 30 71 137 192 223 249 249 93 1 1 1 1 1 1 1 81 210 203 196 196 197 211 252 165 168 158 150 163 187 205 227 228 218 225 230 225 230 241 241 237 233 232 218 178 139 111 121 143 147 168 208 222 213 134 86 115 151 184 205 208 201 223 228 245 252 243 192 166 147 112 117 145 178 201 217 166 102 133 193 226 242 238 228 203 221 247 152 51 85 127 161 179 167 141 123 155 179 179 154 146 159 181 197 204 196 185 177 171 167 152 119 98 103 72 1 10 43 80 91 6 1 1 1 1 1 1 41 232 245 247 248 250 254 194 165 240 230 208 183 188 186
245 243 194 35 19 43 40 82 139 177 206 213 204 181 155 121 57 1 44 133 120 99 108 143 47 16 101 175 184 205 241 117 1 1 1 1 1 1 1 14 109 193 200 215 227 227 224 250 209 183 172 143 158 157 147 199 230 232 245 249 240 237 245 242 233 234 240 228 204 201 189 183 175 175 197 223 233 237 194 152 168 185 201 216 216 216 233 232 240 247 222 145 122 120 96 101 113 155 197 211 150 112 173 219 229 227 174 104 108 135 133 93 72 114 130 169 184 154 150 129 115 165 210 210 182 179 208 229 233 234 231 227 218 179 92 45 55 87 57 1 1 3 84 93 1 1 1 1 1 1 1 187 239 246 247 249 255 253 229 148 198 235 221 228 224 197
254 249 169 34 44 62 57 120 156 154 159 153 134 132 119 64 1 1 84 139 148 171 186 157 52 16 145 212 181 182 155 23 2 28 9 2 11 26 47 100 191 219 214 206 201 196 191 202 250 221 173 134 143 112 94 186 227 224 239 250 249 238 238 234 220 233 240 225 200 200 210 216 214 212 221 227 226 234 203 143 152 172 185 185 198 225 242 248 246 195 126 135 146 97 46 77 112 133 150 134 96 95 161 195 193 161 75 29 53 56 39 52 102 144 146 165 158 136 140 90 50 149 233 231 196 156 165 189 207 214 213 216 219 153 51 54 81 100 40 1 1 1 72 74 1 1 1 1 1 1 38 236 240 244 245 250 252 251 243 154 149 229 246 252 240 217
177 170 138 57 67 81 80 120 157 143 132 121 118 110 54 13 1 1 113 141 172 216 220 108 32 21 112 194 212 189 76 33 74 94 86 51 25 47 72 118 202 220 216 217 216 203 183 165 179 239 211 133 111 82 106 198 221 202 217 240 245 246 234 221 213 233 234 221 203 194 201 216 227 230 238 241 241 237 144 56 58 66 58 48 79 116 132 150 132 57 62 122 101 6 1 90 136 128 139 109 84 90 117 128 123 77 14 17 63 72 62 75 78 105 176 148 103 109 103 53 28 142 220 211 206 167 139 153 183 181 176 174 163 72 20 66 100 113 44 1 1 1 49 55 1 1 1 1 1 1 171 235 238 243 241 249 251 240 232 156 122 213 253 251 236 217
77 102 144 107 66 85 93 110 169 172 156 138 103 52 1 1 5 84 214 240 251 238 126 7 29 24 32 88 114 129 51 40 97 102 79 38 22 57 78 122 208 223 221 215 211 202 190 176 158 161 219 149 83 90 144 198 191 149 176 231 231 244 246 206 194 216 222 217 198 198 203 202 220 234 245 251 253 223 69 35 48 40 29 28 45 59 65 71 34 1 19 52 45 1 3 118 151 127 110 90 100 109 86 57 45 21 26 140 216 205 185 171 115 93 125 111 78 119 120 88 54 143 185 135 142 159 133 130 130 141 162 143 108 56 23 72 105 99 33 1 1 1 77 66 1 1 1 1 1 52 221 226 232 242 238 244 243 229 209 130 123 211 241 234 236 225
167 190 200 152 68 98 91 81 132 185 177 134 69 42 28 54 99 206 237 247 247 158 7 1 29 44 43 112 126 107 58 1 17 16 7 6 4 29 53 115 215 233 234 225 216 212 215 220 219 201 202 197 72 99 179 222 177 106 131 219 246 247 255 196 142 189 216 219 209 208 209 194 207 231 242 247 238 97 21 46 77 96 123 129 99 82 70 52 13 1 16 53 84 25 30 144 152 120 75 73 91 85 51 43 79 107 180 246 242 191 166 184 160 104 68 67 124 166 146 101 42 96 185 148 157 183 166 123 87 103 120 97 94 92 43 62 99 80 39 1 1 1 127 99 1 1 1 1 4 162 226 221 229 240 235 201 103 82 82 103 184 221 229 252 254 233
254 255 254 201 107 117 75 60 110 178 172 104 70 104 140 193 228 241 226 187 47 5 1 1 54 75 74 143 149 123 91 1 1 1 1 1 1 10 35 124 226 240 248 251 248 246 245 245 249 251 249 218 56 71 165 227 197 127 139 181 235 247 246 173 98 172 219 231 219 201 207 192 195 223 226 217 150 22 44 97 128 144 156 147 86 89 101 75 41 24 32 47 52 29 75 140 131 100 57 72 88 95 84 115 184 215 237 249 244 151 86 94 66 25 34 43 51 46 22 15 1 38 192 231 240 240 213 166 127 110 87 78 103 89 39 51 115 111 110 57 1 21 132 58 1 1 1 48 197 253 246 233 209 196 177 120 84 100 100 115 176 215 220 253 254 222
253 253 243 164 109 105 57 64 106 152 165 115 149 203 218 234 240 237 217 114 24 31 23 35 91 99 82 123 131 118 143 51 1 1 1 1 1 1 20 169 244 245 243 244 246 247 245 241 247 250 251 162 43 59 124 196 235 201 170 189 218 236 236 143 75 147 217 235 214 185 190 193 196 219 233 218 132 69 124 142 129 109 110 95 27 44 101 87 69 55 50 58 48 54 97 101 99 76 54 76 103 144 159 181 212 232 241 247 222 68 25 48 39 38 82 65 21 1 1 1 1 24 175 216 241 241 235 223 210 185 167 166 131 52 38 82 131 123 113 114 20 19 108 17 1 1 19 194 248 243 251 239 197 174 176 183 200 213 210 206 195 170 160 183 172 162
253 248 102 22 33 55 55 68 73 100 142 171 233 250 252 253 244 221 187 90 58 71 63 71 99 81 69 100 108 111 140 69 1 18 34 24 3 1 57 216 246 243 229 216 213 211 202 201 217 234 250 153 82 103 167 252 254 225 173 231 247 252 252 148 76 127 186 212 211 182 181 203 200 219 243 233 166 140 141 107 78 59 81 54 12 64 123 108 108 112 118 128 111 109 103 87 77 65 85 128 173 202 211 222 232 236 236 231 155 35 57 105 107 111 126 103 79 40 15 23 28 66 137 131 149 207 236 247 243 238 231 221 123 31 47 87 92 77 71 58 1 1 37 1 1 10 217 253 250 245 250 253 250 248 250 254 240 230 246 243 215 175 128 99 79 88
232 119 9 1 1 16 25 31 48 79 133 200 233 248 255 253 254 254 221 93 59 64 86 121 124 67 62 96 104 106 119 72 1 1 1 1 1 25 149 252 254 255 246 230 213 215 220 224 235 237 241 182 125 154 194 233 247 208 177 238 245 249 251 194 123 128 148 167 185 179 185 218 210 226 246 225 139 109 71 49 56 68 92 52 56 149 170 159 165 163 153 144 149 147 116 88 68 87 139 190 224 231 226 223 226 222 224 205 131 87 119 129 120 133 152 127 125 161 148 148 132 114 146 162 161 174 215 222 196 169 157 155 110 52 69 69 36 26 66 44 1 1 1 1 1 205 249 245 243 241 243 247 248 250 249 248 228 203 227 157 44 37 45 62 88 131
75 25 3 1 1 21 4 9 50 74 138 221 232 240 251 255 251 246 185 81 75 96 132 160 112 40 78 134 133 115 114 79 1 1 1 1 1 45 244 249 249 247 252 253 249 247 248 239 213 165 117 99 158 213 215 227 234 194 218 234 235 250 239 212 193 125 119 161 168 151 163 209 200 202 212 138 36 14 17 44 75 83 89 83 126 201 189 168 193 203 188 165 185 196 176 140 119 146 181 210 233 245 227 202 206 215 232 223 176 149 144 132 141 154 151 117 106 158 176 169 145 139 164 207 209 175 141 130 117 115 135 162 163 61 68 58 32 22 62 50 1 1 1 34 213 247 241 244 244 246 244 249 252 255 246 208 105 53 24 1 1 34 98 144 187 206
90 44 33 13 32 49 19 12 28 51 132 223 223 221 226 242 253 247 142 67 69 72 97 114 45 19 127 190 172 133 123 94 1 1 1 1 19 198 249 245 251 248 246 249 251 251 235 193 129 85 44 42 92 176 217 197 187 219 239 179 32 36 27 3 25 1 1 87 186 176 171 193 145 72 67 47 10 19 61 84 81 72 103 135 171 217 205 181 201 209 203 179 202 210 177 180 183 186 202 226 239 241 222 182 200 223 247 240 187 159 146 129 142 141 121 89 80 133 167 147 130 147 166 193 168 127 88 72 73 116 158 150 88 13 19 28 48 32 31 15 1 1 82 224 254 245 238 236 239 209 182 162 138 121 94 30 1 1 1 1 79 202 240 242 238 222
73 50 96 117 90 77 45 27 74 149 222 247 234 210 195 195 209 230 124 52 46 53 86 92 39 67 187 205 172 145 155 131 1 1 1 1 73 224 225 224 234 251 255 251 212 127 84 60 61 47 15 58 87 71 30 2 38 78 21 1 1 11 23 22 32 1 1 89 150 218 237 172 28 1 42 80 53 62 89 86 74 92 155 183 199 228 227 208 205 209 207 182 201 205 160 166 171 168 209 223 214 202 193 182 205 231 252 241 157 140 148 133 129 119 103 91 103 156 190 167 141 153 165 153 132 95 65 68 86 124 138 104 36 1 1 13 60 49 32 20 1 100 244 254 251 239 227 190 94 45 37 24 27 19 27 18 13 2 1 64 179 237 253 241 243 234
56 35 97 137 81 40 17 51 200 245 255 254 255 253 238 224 214 215 135 46 48 74 102 118 84 105 180 196 178 177 192 150 1 1 1 1 99 208 213 217 218 188 86 47 15 26 37 40 48 21 25 77 56 28 6 1 22 12 1 1 8 32 65 98 109 88 95 184 233 241 228 55 1 1 63 76 54 62 77 103 125 158 193 207 219 234 247 229 193 206 200 164 180 172 131 141 146 158 202 183 153 160 168 183 198 220 216 177 127 119 132 116 103 103 102 118 139 167 188 172 137 153 174 141 152 135 113 144 150 127 112 89 36 13 1 19 78 82 83 98 107 179 213 240 242 212 154 75 29 43 40 37 40 24 49 35 24 25 48 187 234 236 251 240 235 252
38 6 43 56 14 1 1 45 202 216 236 246 247 250 251 247 234 224 170 74 87 94 94 97 91 93 136 152 153 170 182 141 1 1 1 1 132 209 212 215 188 40 1 15 13 38 51 62 42 20 58 77 51 40 28 24 33 15 11 37 59 80 119 128 138 145 170 239 251 250 137 1 1 1 34 55 81 103 131 160 169 185 194 213 231 249 252 226 176 188 160 138 147 122 107 120 134 161 191 180 176 176 157 149 156 161 118 105 104 64 76 72 74 108 122 137 142 148 155 145 131 155 174 141 117 148 185 202 181 143 138 104 50 50 40 75 119 101 113 151 172 192 182 190 199 164 92 50 43 53 41 47 47 57 95 65 64 67 112 212 230 206 172 183 220 241
23 21 46 42 26 1 1 83 196 180 144 122 136 162 165 154 142 143 152 106 80 51 51 65 71 84 126 96 71 87 106 110 16 1 1 1 135 188 179 145 34 1 1 44 35 40 55 56 27 54 102 101 83 71 66 67 69 67 85 99 102 129 150 130 122 138 192 230 236 191 39 1 1 1 23 86 135 154 181 181 178 206 215 240 250 252 243 143 131 136 106 127 118 108 120 136 165 181 197 213 204 180 153 126 118 121 105 127 109 52 70 79 96 141 133 111 110 113 131 155 156 161 155 137 92 111 189 199 189 180 163 88 58 75 69 108 140 163 194 203 217 242 235 204 148 108 90 76 66 62 51 58 74 113 105 49 73 69 107 143 111 70 65 80 105 124
21 44 67 70 85 26 13 141 220 208 149 106 101 93 78 76 82 110 144 123 44 30 63 92 89 88 117 96 69 65 65 81 37 1 1 13 137 187 153 70 4 16 94 151 166 184 195 193 193 225 216 174 141 129 137 140 141 144 147 131 128 158 169 154 147 152 179 188 170 90 56 18 1 25 74 133 149 154 182 190 212 244 237 235 243 215 108 67 84 75 70 91 95 119 154 179 197 183 186 202 192 183 169 143 146 165 153 159 141 99 115 114 105 116 99 78 92 111 162 196 159 133 128 139 77 70 166 177 171 165 124 84 107 108 92 116 148 191 222 222 240 252 250 209 122 98 90 82 81 78 69 75 88 92 49 17 41 31 58 67 33 33 46 63 73 60
3 8 44 80 90 31 45 171 221 228 224 219 192 153 133 136 152 179 184 96 32 82 121 109 89 77 77 106 138 118 95 84 43 1 1 17 139 200 168 128 153 226 254 254 247 240 245 248 240 248 248 237 235 238 240 231 214 208 202 182 185 203 202 182 168 155 147 142 124 116 140 57 41 94 129 160 162 179 210 224 240 249 241 208 146 96 106 124 115 108 102 127 163 176 192 196 182 149 154 177 171 155 121 139 181 167 123 130 133 125 127 100 76 78 81 84 96 138 190 171 110 93 113 129 58 54 152 169 161 149 149 182 184 156 152 178 204 204 194 213 242 244 207 158 171 189 168 149 152 168 172 156 114 78 56 62 88 97 101 68 55 54 54 60 40 15
24 19 28 50 35 24 99 204 229 238 250 250 252 252 253 250 245 234 219 55 16 60 77 56 48 54 70 105 158 151 107 61 17 1 1 14 123 213 229 249 254 251 247 244 241 232 234 239 234 240 231 209 199 222 242 235 230 241 238 223 219 198 164 148 138 146 147 144 143 177 209 96 95 115 130 152 176 202 206 216 216 150 69 53 66 98 148 167 170 178 174 196 191 167 175 172 142 120 138 157 137 111 98 127 147 112 93 108 104 117 125 100 93 99 102 105 113 154 153 83 76 93 114 104 46 65 152 185 188 209 217 179 134 159 210 234 239 233 231 216 196 170 157 207 237 235 214 217 230 237 237 222 201 174 161 199 232 232 215 191 190 147 116 89 52 53
75 72 63 64 24 27 146 220 230 229 229 234 247 253 254 254 248 235 181 8 14 31 14 1 1 16 69 107 148 164 139 117 68 3 1 12 116 227 238 252 248 250 248 244 238 229 226 234 228 230 227 202 169 184 203 199 219 234 217 207 197 171 155 147 146 187 209 193 174 178 200 83 84 121 112 112 156 171 115 94 66 41 55 93 110 112 136 152 157 152 149 157 116 94 121 123 98 97 134 144 130 131 137 142 133 110 115 116 103 108 107 113 121 97 83 109 123 114 75 47 75 98 101 71 54 88 150 190 209 217 179 130 179 229 249 249 235 223 218 224 223 193 217 246 247 234 211 230 246 239 236 225 196 186 222 229 250 254 249 236 232 233 237 222 176 164
74 87 78 88 43 52 156 206 211 176 126 131 155 172 159 155 187 201 120 5 52 68 37 13 8 52 113 135 153 155 163 177 158 98 55 38 132 223 210 223 247 251 245 249 245 234 225 233 231 228 233 222 184 173 169 160 212 235 212 190 143 96 156 193 195 230 241 226 198 180 185 71 42 40 1 1 13 15 7 48 74 90 115 120 109 102 102 76 62 67 65 65 60 83 117 110 92 99 118 124 143 161 155 149 142 139 142 128 109 102 87 90 105 80 77 124 121 83 67 74 96 123 107 62 67 100 151 196 227 225 195 212 243 246 254 255 229 216 217 205 214 221 233 230 237 235 226 244 249 234 220 212 173 139 204 215 221 252 249 234 218 215 241 244 199 209
29 60 44 35 47 101 182 213 208 153 127 137 129 100 79 117 159 177 159 77 117 128 104 110 152 182 191 165 141 120 131 158 174 101 36 28 156 230 224 224 234 241 233 227 239 253 250 254 254 255 252 246 242 216 166 130 211 250 243 187 68 50 115 179 235 253 253 244 247 235 246 117 35 6 1 1 5 22 53 105 120 122 137 140 130 124 122 103 99 91 78 81 95 115 117 99 97 106 109 115 133 136 113 102 106 134 159 135 103 91 87 104 106 91 93 109 99 93 103 120 130 140 106 53 61 110 167 231 253 247 234 235 242 245 250 249 225 216 227 208 199 205 223 226 225 244 242 252 253 236 203 168 139 109 167 212 200 218 252 237 213 225 235 225 152 186
7 19 3 1 67 169 230 243 245 227 225 202 159 148 182 213 214 217 236 140 129 154 148 152 183 198 185 128 101 105 108 101 110 54 1 1 174 217 223 238 244 250 239 215 195 190 204 210 187 156 141 146 164 201 178 139 220 241 236 116 33 47 95 175 249 254 252 241 246 245 251 58 1 9 1 37 92 107 120 137 153 163 173 170 161 154 152 145 150 144 130 129 139 138 126 121 129 148 157 149 144 124 104 109 125 130 116 86 67 65 90 125 112 93 88 79 89 108 119 130 120 123 108 60 74 140 185 233 246 252 243 222 226 246 252 243 232 236 235 217 195 193 193 233 235 244 251 254 255 246 202 131 110 87 143 223 212 210 229 249 221 241 238 193 125 144
12 33 11 10 112 224 248 250 254 241 223 226 233 229 239 245 245 239 215 134 136 156 161 168 176 186 160 86 64 91 89 55 47 8 1 1 185 199 191 195 206 224 217 193 168 162 176 190 184 179 184 187 180 148 106 176 254 253 216 74 52 75 119 180 247 249 228 227 248 242 200 1 1 34 53 85 161 180 167 165 178 179 172 165 164 164 170 168 156 148 150 155 149 135 139 154 166 187 184 157 161 163 174 182 186 181 168 161 127 105 123 121 92 88 77 66 88 97 99 100 97 120 125 82 95 167 216 236 226 233 250 210 221 247 253 246 245 247 240 227 207 189 148 202 242 247 254 255 254 247 211 117 91 71 125 229 214 217 224 251 239 245 250 176 114 121
1 13 22 68 191 246 250 248 252 251 232 204 224 255 246 241 238 189 80 46 79 127 171 184 172 159 115 59 43 62 68 52 60 35 1 21 192 209 213 221 211 189 161 146 137 137 141 150 161 169 179 186 178 134 108 152 175 154 104 34 53 127 155 172 213 230 218 235 219 151 1 1 1 44 73 132 182 179 159 166 188 169 154 158 160 170 175 172 156 155 161 141 123 126 151 185 198 199 196 176 175 192 202 192 193 194 184 185 165 150 168 159 124 104 79 68 74 70 82 101 113 116 116 92 100 172 220 229 227 217 222 226 236 245 250 243 251 253 242 232 214 178 100 175 246 247 254 253 251 243 215 104 64 47 93 219 190 186 192 209 249 250 248 168 102 95
2 1 28 138 230 235 218 214 222 232 242 229 225 245 255 251 229 79 30 38 72 111 143 117 87 90 76 53 43 78 106 76 88 105 45 62 211 211 211 230 246 236 205 181 158 143 129 121 117 125 149 167 170 133 146 180 171 118 54 18 39 166 211 195 181 170 222 244 223 91 1 1 1 62 102 187 230 203 138 122 160 153 157 166 161 160 156 150 149 162 158 134 142 162 190 220 220 206 202 182 178 196 195 188 194 191 164 145 150 151 167 185 171 156 142 109 67 57 76 105 117 98 96 92 105 174 210 211 219 220 224 251 243 241 249 245 253 254 239 226 193 145 89 171 240 234 254 252 247 239 203 69 32 35 71 199 173 156 150 154 172 204 198 130 96 82
15 1 80 202 242 243 216 178 157 164 185 215 246 251 253 249 97 4 18 63 110 95 82 46 11 35 92 102 92 125 111 52 72 87 18 65 239 222 208 209 233 238 228 219 201 170 144 133 120 118 131 138 132 131 173 180 162 119 57 23 27 125 216 243 166 160 228 187 75 37 8 23 69 98 147 215 235 237 159 125 150 143 157 184 180 175 170 166 167 165 147 145 181 207 221 229 223 205 191 176 183 195 194 197 185 162 127 124 156 154 161 172 164 173 171 124 96 114 106 106 118 107 105 122 146 191 224 233 234 235 230 240 250 242 247 244 254 254 240 207 153 133 108 169 240 212 239 255 243 230 151 23 22 49 69 171 178 156 153 143 89 43 28 77 135 81
13 1 127 229 245 252 242 247 223 197 199 220 240 252 249 134 1 2 28 88 97 49 70 52 1 28 100 147 109 81 32 1 22 19 1 80 232 221 218 200 187 201 225 235 234 221 197 169 147 140 137 127 107 116 145 147 126 61 13 21 73 177 217 197 58 150 229 111 50 88 137 134 96 92 153 218 245 254 214 173 146 108 122 167 174 184 181 171 174 175 168 183 220 232 226 225 224 202 192 194 201 196 181 175 133 104 104 132 168 167 164 155 147 163 150 119 121 132 122 124 130 116 133 176 188 211 235 238 228 218 210 211 231 249 248 235 245 233 211 184 173 165 136 178 253 218 219 248 249 198 78 28 55 72 76 139 188 141 106 64 33 47 74 121 134 77
18 29 195 242 242 241 251 246 247 254 249 246 246 244 200 62 23 44 36 90 75 36 77 38 1 37 108 109 65 22 8 1 1 1 9 124 209 193 186 166 151 169 206 221 223 225 220 203 180 171 167 147 113 97 84 74 59 20 21 75 144 185 171 74 24 132 165 140 117 146 183 127 35 48 143 206 219 244 251 227 129 58 107 145 162 183 171 150 155 168 183 213 241 242 230 226 212 192 191 178 178 154 123 128 105 97 121 151 176 174 157 143 141 146 132 125 132 132 129 116 120 141 173 177 184 219 236 235 220 208 191 157 137 162 205 213 214 209 213 221 229 193 146 165 238 227 201 203 227 159 73 86 80 76 81 126 206 153 85 48 59 90 96 88 51 25
57 113 230 235 231 230 242 254 246 251 255 254 246 188 119 73 39 34 25 90 58 33 71 28 1 53 111 96 64 47 42 23 19 27 45 170 213 183 153 138 133 139 155 170 174 182 192 197 191 185 177 153 110 92 87 81 67 64 115 177 192 165 104 22 28 85 82 83 148 195 152 41 1 21 139 189 168 133 117 161 105 56 137 155 174 164 141 137 137 170 209 235 246 248 238 220 172 164 163 130 121 95 96 123 121 124 152 181 185 171 156 153 155 150 139 133 147 163 146 90 97 175 192 169 182 212 223 224 224 225 209 175 168 178 181 178 194 226 245 252 245 201 140 143 212 243 189 167 188 178 104 104 71 83 99 138 179 204 173 115 88 74 57 40 7 1
94 190 240 242 242 243 240 247 251 252 253 242 179 105 115 109 57 48 46 80 42 42 65 29 11 52 105 86 64 46 24 16 31 48 44 179 212 204 197 197 193 168 140 133 142 159 169 175 177 181 175 140 101 120 145 144 137 154 194 208 130 51 39 22 47 89 89 79 84 123 86 1 1 1 92 143 142 118 118 150 222 147 161 181 185 144 123 133 122 161 203 227 238 248 242 196 152 156 153 141 134 121 125 129 131 139 165 202 198 180 181 171 161 131 120 126 141 158 128 74 91 170 194 184 213 241 243 245 248 245 238 233 228 222 213 191 194 222 243 254 247 182 121 149 201 236 212 169 157 154 82 57 85 128 124 147 160 168 199 182 149 132 148 175 160 110
149 236 249 250 251 249 238 223 216 214 189 118 65 73 111 125 103 80 66 87 104 110 80 34 20 48 87 68 69 58 15 8 32 31 16 151 208 221 234 242 250 248 228 167 119 118 111 106 114 126 133 100 79 129 153 145 166 200 212 143 9 14 61 68 128 184 175 170 163 159 76 1 1 1 36 106 154 194 222 230 248 215 178 211 200 135 116 143 126 144 172 201 214 222 227 208 175 155 166 155 144 144 137 142 148 145 180 219 211 182 173 156 141 112 111 112 124 138 104 80 104 153 187 203 247 255 248 247 250 248 243 243 237 223 212 210 216 230 238 249 243 144 110 160 187 184 210 195 166 131 52 45 141 182 151 147 154 161 160 166 225 234 226 251 240 207
